# .PCD v0.7 - Point Cloud Data file format
VERSION 0.7
FIELDS x y z
SIZE 4 4 4
TYPE F F F
COUNT 1 1 1
WIDTH 1267
HEIGHT 1
VIEWPOINT 0 0 0 1 0 0 0
POINTS 1267
DATA ascii
0.044102445 0.072235763 -0.059458025
0.031540602 0.036147323 0.0023028855
0.045062196 0.060504474 -0.056821786
0.039093807 0.036146637 -0.028012825
0.043460444 0.036146242 -0.020032002
0.045048445 0.028465953 -0.031901967
0.045044318 0.014913919 -0.070312425
0.041794129 0.057295959 -0.083724946
0.045196991 0.02383093 -0.048858941
0.045193318 0.012408394 -0.051308565
0.045190234 0.0022393202 -0.034984671
0.042153217 4.040428e-05 -0.0017581234
0.039464533 4.0507566e-05 -0.051059738
0.026175166 0.018786075 0.019833324
0.032513291 4.1447438e-05 -0.020620184
0.02963718 4.1561048e-05 -0.048659194
0.026703659 4.2146316e-05 -0.069463462
0.023711242 4.2738473e-05 -0.086750306
0.02065813 4.3353011e-05 -0.10173773
0.015961196 4.3306532e-05 0.014458453
-0.0046829795 0.026741177 0.013982669
0.0094677107 4.4065662e-05 -0.013117405
0.0061169509 4.5234479e-05 -0.026650488
0.0026949511 4.538252e-05 -0.040474378
-0.00080171647 4.6064182e-05 -0.057435334
-0.00437555 4.7293248e-05 -0.0747687
-0.0080282949 4.8002457e-05 -0.095386669
-0.013661999 4.9114478e-05 0.018791579
-0.017524021 4.8783972e-05 -0.0073125688
-0.021475645 4.8992253e-05 -0.043070313
-0.025520593 5.0322884e-05 -0.097977482
-0.031765915 4.9827126e-05 -0.06472791
-0.038239051 5.047609e-05 -0.072974153
0.020530926 0.069850177 -0.10663571
-0.0052081416 0.05729986 -0.10834336
-0.027999049 0.06241532 -0.097609945
-0.0049467119 0.042290252 -0.10834116
0.045474052 0.063393839 -0.081775211
0.011846505 0.030341143 -0.10833918
-0.0093093412 0.025522253 -0.10833856
-0.027659509 0.0303225 -0.098025456
0.044678804 0.03710926 -0.082500629
0.030619906 0.020334847 -0.0964581
0.025288654 0.011596995 -0.10174486
0.024763916 0.0069469884 -0.10225566
0.030229915 0.0066467482 -0.096811645
0.039584897 0.0086502172 -0.08750087
-0.032776169 0.0022155496 -0.092953652
-0.018942544 6.2992258e-05 -0.089731492
5.1504219e-09 6.6276647e-05 -0.08258722
0.018047022 6.8087553e-05 -0.074811436
0.026979972 7.1659415e-05 -0.066309914
0.021221202 7.4466989e-05 -0.056981739
0.0014872747 7.9607031e-05 -0.046693135
-0.03448689 8.2832907e-05 -0.035298541
-1.1633055e-08 9.0379435e-05 -0.018035991
0.0095361937 0.0031689303 0.010992243
0.035796423 0.068881966 -0.053481627
-0.01501854 0.068731174 -0.053309418
0.029196853 0.05581421 -0.053459141
0.044710189 0.049460277 -0.069552489
-0.0084756631 0.045491159 -0.053331517
0.033583712 0.035187032 0.011746929
0.044780031 0.03309612 -0.015668148
0.044727691 0.031117573 -0.056381617
0.02564658 0.027280482 0.019688098
0.044794828 0.025080537 -0.0039724712
0.044747263 0.022041662 -0.040955864
0.015857054 0.018970996 0.027639609
0.040395252 0.017346907 0.0049321004
0.044765349 0.013831257 -0.027000826
0.044707183 0.0086777387 -0.071526937
0.03271655 0.0092388643 0.012614705
0.044781789 0.0063682012 -0.014316036
0.018334312 0.0027438954 0.027003882
-0.045531802 0.071080402 -0.064852901
-0.045539211 0.062053788 -0.070648156
-0.0070670927 0.060501471 -0.054916207
-0.045551743 0.05010571 -0.080793798
-0.040518474 0.043470077 -0.054803461
-0.0013209821 0.039937936 -0.054935563
-0.045531802 0.033931781 -0.064852901
-0.04547755 0.030809084 -0.022178929
-0.037572205 0.028428283 0.0073487703
0.011023226 0.02567444 0.026414631
-0.045494732 0.022184962 -0.035584845
-0.045087919 0.020747475 -0.00016287027
-0.022591949 0.018007517 0.022321185
-0.045513254 0.012673096 -0.050371002
-0.045463216 0.012426368 -0.011271245
-0.030654641 0.010249981 0.014262334
-0.045533806 0.0021289678 -0.066761807
-0.045451872 0.0052336883 -0.0024155295
-0.021676721 0.00058035878 0.023235597
-0.044752672 0.071144678 -0.056022737
-0.044779655 0.063437141 -0.076506451
-0.030854864 0.059145842 -0.095711932
0.012278909 0.059835512 -0.10898497
-0.043904763 0.050208881 -0.082655326
-0.026325349 0.046332702 -0.10024359
-0.044760678 0.043181736 -0.062188547
-0.039641682 0.037690792 -0.086920403
-0.044740394 0.03492333 -0.046251081
-0.019824969 0.030850509 -0.10674725
-0.044779655 0.028428283 -0.076506451
-0.044713169 0.025641052 -0.024572818
-0.030854864 0.022521062 -0.095711932
-0.044757109 0.019728968 -0.059139308
0.012278909 0.014152272 -0.10898497
-0.041357335 0.014589917 -0.085204288
-0.044731889 0.0098211151 -0.039359737
-0.023562785 0.0080103278 -0.10300782
-0.044772457 0.0057958816 -0.070957683
-0.036169641 0.0027509837 -0.090394542
0.038491897 0.069124676 -0.08764641
0.043632634 0.064044349 -0.082508191
0.045493528 0.062142566 -0.056589063
0.029642835 0.05690651 -0.096490927
0.045466229 0.051518131 -0.078258649
0.0046879118 0.050762087 -0.10767224
0.034112271 0.043697465 -0.09202379
0.045474987 0.039086685 -0.071408115
0.025080806 0.035621583 -0.10105061
0.04551959 0.032435842 -0.036530692
0.042784058 0.029579479 -0.083355889
-0.0062396559 0.027037367 -0.10763597
0.045493931 0.023433596 -0.056589376
0.032335583 0.021352258 -0.0937998
0.045539662 0.015818769 -0.021527132
0.04547143 0.015534367 -0.074190296
0.021362953 0.01271263 -0.10476705
0.045511063 0.0075408099 -0.043521415
0.039357215 0.007540666 -0.086781427
0.045494337 0.0022062368 -0.056589682
0.038089357 0.036584649 0.0048776669
0.023106256 0.036581974 -0.0018425744
0.0014855553 0.027893813 0.013160298
0.019708537 0.036580231 -0.017487589
0.031475585 0.072663374 -0.073426194
-0.00070161081 0.036578562 -0.018591667
0.026932927 0.072661981 -0.080621965
-0.012845217 0.072661154 -0.059860568
0.029852619 0.072660662 -0.091805302
-0.012786922 0.072659865 -0.06904199
0.022650555 0.07265944 -0.096165314
-0.021575471 0.07265833 -0.072208494
0.0071840454 0.072658263 -0.094899938
-0.040348694 0.072657213 -0.068705142
-0.020527797 0.072656505 -0.085592672
-0.0096721696 0.072656475 -0.096783668
-0.0091495011 0.072656117 -0.10143989
-0.017562799 0.072655156 -0.10043181
-0.03301426 0.070136517 -0.093487665
-0.0028111325 0.053882055 -0.1088549
-0.042432748 0.044362847 -0.084022641
-0.044561118 0.019076778 -0.077260956
-0.032698449 0.020570399 -0.093719453
-0.030139837 0.036585394 0.0097896997
-0.03844057 0.036583398 -0.011321548
-0.042127665 0.072665349 -0.067090109
-0.020509468 0.072664358 -0.060320698
-0.008954661 0.010407858 0.010065755
-0.025952537 0.07266289 -0.074093036
0.013711778 0.036578137 -0.018358134
-0.011192452 0.072661154 -0.074716657
0.028004574 0.036576606 -0.021885946
-0.0034194826 0.072659865 -0.079058088
0.03602504 0.072659075 -0.059901495
-0.005937486 0.072658665 -0.089212723
0.025635516 0.072657578 -0.074615784
0.046015106 0.021701574 -0.028338462
0.00083532825 0.072656833 -0.097763523
0.016125713 0.072656147 -0.092794925
0.020029511 0.072655477 -0.094715253
0.016670858 0.072655141 -0.10098307
-0.0030728632 0.056903753 -0.10815946
0.030067796 0.06295272 -0.096823774
0.040816572 0.043405883 -0.0860928
0.034621358 0.035162278 -0.092292212
0.040469598 0.010183849 -0.086464904
0.012377398 0.036614958 0.023535425
0.018566014 0.036615729 0.014252135
-0.018566091 0.036614962 0.0080636879
-0.030943479 0.036614951 0.0018749916
0.026301971 0.036614954 -0.0058608791
-0.024754783 0.036614966 -0.012049578
0.020113276 0.036614954 -0.018238276
-0.020113267 0.036614962 -0.022879796
0.029396307 0.036614966 -0.029068496
-0.010830213 0.036614958 -0.033710022
0.038679354 0.036614962 -0.039898712
-0.0015471737 0.036614962 -0.044540234
-0.04177371 0.036614954 -0.049181759
0.01330056 0.06282346 -0.054067746
0.02995464 0.072715215 -0.057320397
-0.039939515 0.072715215 -0.059816614
-0.01996976 0.072715215 -0.063560948
-1.3724617e-11 0.072715215 -0.067305274
0.019969767 0.0727152 -0.071049601
0.039939519 0.072715215 -0.074793935
-0.029954629 0.072715215 -0.077290148
-0.009984877 0.072715215 -0.081034489
-0.0012481069 0.072715223 -0.084778808
-0.014977315 0.072715215 -0.088523149
0.014977323 0.072715215 -0.09351559
0.0049924399 0.072715215 -0.098508023
-0.0012481069 0.072715223 -0.10474857
-0.016281687 0.072674081 -0.093136489
0.0066094338 0.07267122 -0.09557002
-0.016621413 0.0726716 -0.070202611
0.016070031 0.072669499 -0.082580708
-0.034539487 0.063577816 -0.053514738
-0.009520838 0.069712952 -0.053540427
0.0089286705 0.072665662 -0.054411069
0.029367287 0.072664283 -0.060541533
-0.040555343 0.036579888 -0.048083521
-0.022562491 0.036578786 -0.05139729
-0.013464327 0.036577716 -0.049509916
-0.011421316 0.03657607 -0.043542325
-0.017364589 0.036575705 -0.032902006
-0.029570816 0.036573526 -0.018642565
0.044038706 0.044296239 -0.053532436
0.020191375 0.036572259 -0.038722731
0.00048477951 0.036571976 -0.020430788
-0.012495345 0.03654559 -0.0065198448
-0.019047484 0.036568105 0.0032565002
-0.019519133 0.036567919 0.0090732118
-0.014192472 0.036567189 0.011128917
0.018289097 0.036566485 -0.0037667316
0.018037861 0.036564358 0.0030444469
-0.0073302835 0.036564372 0.025111105
0.035111483 0.036563244 0.0035046479
0.038524069 0.034869779 0.0067006727
0.031006837 0.021927316 0.01419797
-0.0010999787 0.072675191 -0.10692565
0.022871275 0.072674081 -0.080205873
0.0015549507 0.072671711 -0.082203396
0.027717933 0.072670899 -0.058087137
-0.02713351 0.072668336 -0.081930481
-0.014456338 0.072667219 -0.066925906
-0.0043772948 0.072242111 -0.054347523
0.019517586 0.053961623 -0.054411363
-0.039215732 0.072662935 -0.060384855
-0.020710755 0.061759334 -0.054357544
-0.0055632675 0.045952037 -0.054407675
0.00037968095 0.036576606 -0.052746437
-0.0040513938 0.036574993 -0.048432484
-0.016139818 0.03657404 -0.049105063
-0.034198184 0.036572535 -0.053708825
0.033796865 0.036571559 -0.0074419342
0.0079387659 0.036570124 -0.017240325
-0.012156771 0.036571044 -0.023684949
-0.02437216 0.036567993 -0.025461061
-0.030278387 0.036567245 -0.02352543
-0.031342611 0.036566518 -0.018777285
-0.025506213 0.036565822 -0.009935759
-0.032950055 0.036564749 -0.0078100096
-0.044484191 0.036564246 -0.0084848227
-0.010650447 0.036564618 0.017096901
-0.019044494 0.036563139 0.017923143
-0.042117883 0.015519749 0.0035803851
-0.0052674813 0.072470635 -0.10080799
-0.046040606 0.070955493 -0.060023427
0.0069244336 0.063870125 -0.054233659
-0.027872285 0.060359117 -0.054191638
0.038460594 0.049460866 -0.054285578
0.0012101812 0.046513978 -0.054240122
-0.027110081 0.043586798 -0.054206278
0.00084767747 0.036355022 -0.047458984
-0.019100554 0.03634778 -0.040484916
0.032538213 0.036343433 0.0026595904
-0.012798562 0.036338232 -0.010505257
-0.046093725 0.023411114 -0.058092628
-0.01675012 0.03632956 0.0076167742
-0.046014149 0.024248272 -0.033207588
-0.018151199 0.036321532 0.023379471
-0.044818997 0.030511523 0.001154586
0.0047686812 0.026085678 0.027132669
-0.019194769 0.028738622 0.026768377
-0.025786486 0.024012841 0.020181185
-0.025707453 0.020370694 0.020261345
-0.018780529 0.018036807 0.027156964
0.0094767623 0.0045413342 0.027109554
-0.023081895 0.0083069382 0.022890151
-0.043615527 0.072043821 -0.053634942
0.020130249 0.067011259 -0.053634927
-0.0067100809 0.06030117 -0.05363493
-0.033550415 0.053591095 -0.053634927
0.030195374 0.048558529 -0.05363493
0.0033550404 0.041848443 -0.053634927
0.0100463 0.033451438 0.027590133
-0.012055556 0.030437542 0.027590133
-0.040212292 0.02724557 0.0060934443
0.018188473 0.025396874 0.026885139
-0.0040185144 0.022400504 0.027590133
-0.028168231 0.018677745 0.018082533
0.028504867 0.016368538 0.016519656
0.0040185289 0.014363464 0.027590128
-0.018083286 0.011349619 0.02759045
0.040737495 0.0056632156 0.0042288294
0.012055565 0.0063264235 0.027590133
0.0050231516 0.003312533 0.027590128
-0.028207438 0.071293667 -0.054196931
-0.046205413 0.066344149 -0.070731878
-0.0095063327 0.029410869 0.027188491
-0.035971794 0.026140304 0.010054517
0.014779474 0.029443741 0.027158896
-0.028338213 0.019167185 0.017680299
-0.04605088 0.030862276 -0.036563411
-0.023347249 0.012928691 0.022665367
-0.046022505 0.022015447 -0.031402119
-0.023501046 0.0075666518 0.02250896
-0.046037376 0.016876239 -0.037839964
-0.027174423 0.0026835024 0.018834561
-0.046178002 0.019543614 -0.079583928
-0.031613588 -9.5373172e-05 0.0050644469
0.0062876572 -9.1229798e-05 0.017559383
-0.030978512 -8.2657316e-05 -0.025006149
0.018331593 -7.7878773e-05 -0.010236285
-0.007297975 -6.5254149e-05 -0.055223979
0.0067254892 -4.5957462e-05 -0.10124179
0.01147405 0.071160093 -0.053311691
-0.030444285 0.062410463 -0.053257223
0.032789979 0.06232933 -0.053329919
-0.00068113068 0.053280842 -0.053285535
-0.035702992 0.042739116 -0.053236306
0.035309155 0.046383105 -0.053321552
-0.037765317 0.036355253 -0.024641674
0.044651672 0.037156399 -0.059171405
0.012807933 0.036344022 -0.025363745
-0.018245898 0.03633678 0.0086764367
0.031845123 0.036333423 -0.013497288
-0.001097428 0.036328267 0.018643355
0.043215044 0.036324665 -0.0016874089
0.016357312 0.036321092 0.024487007
0.044724703 0.019286575 -0.030025456
0.029563323 0.030364905 0.016012264
0.013001974 0.027476544 0.027789898
-0.0050291196 0.018578671 0.02781692
-0.010990699 0.012764911 0.027828306
0.0024499791 0.013028887 0.027812568
0.020736191 0.013700388 0.024834536
0.044800922 0.003607695 -0.00073795993
0.030827502 0.00092293281 0.014730684
0.044602487 0.068193749 -0.06566716
0.036697127 0.059239354 -0.05323711
0.030354496 0.026596265 0.015276472
-0.0067715105 0.027198633 0.027848192
0.038969245 0.022004316 0.0066603748
0.0083866902 0.017685909 0.027821787
0.044489574 0.016899128 0.0011401608
0.014681362 0.010826378 0.027808174
0.044867963 0.012231753 -0.0026992718
0.010996467 0.0061253691 0.02780911
0.041889329 0.0052948128 0.0037454828
0.0043648882 0.0018233086 0.027814124
0.0338309 -9.7944918e-05 0.0086521283
0.04463191 0.014356434 -0.077757508
0.0018633706 0.002321728 -0.012976498
0.044760857 6.5842862e-05 -0.041918486
-0.0011674331 -6.8958565e-05 -0.039404918
0.003234348 -5.6537076e-05 -0.077202253
-0.01116388 0.072435908 -0.08450707
0.012044803 0.072420456 -0.10564667
0.019190108 0.070136771 -0.10799262
0.022003002 0.066918164 -0.1051823
0.023413265 0.063697428 -0.10377385
0.02410458 0.060457155 -0.10308423
0.038977329 0.055989373 -0.088219054
-0.011825337 0.051115058 -0.10834647
0.023197697 0.05177452 -0.10399449
0.043371018 0.046268959 -0.083830811
-0.011416288 0.041134182 -0.10833897
0.022255618 0.042756952 -0.10493954
0.037639476 0.037241902 -0.089563869
0.046059135 0.0196907 -0.046442978
-0.0010385993 0.029048638 -0.10834276
0.012944244 0.028612675 -0.10835972
0.01421122 0.025149185 -0.10835868
0.0011603803 0.017593501 -0.10833599
0.04597304 0.010410634 -0.077276617
0.022493076 0.01283446 -0.10471427
0.031868115 0.0054431306 -0.095346324
0.010953415 0.071146622 -0.10881504
0.0054767062 0.066765256 -0.10881504
0.0010953378 0.063479237 -0.10881504
0.0054767062 0.060193207 -0.10881504
0.0098580746 0.056907177 -0.10881504
0.014239444 0.053621147 -0.10881504
0.018620862 0.050335184 -0.10881466
0.023909988 0.047783989 -0.10359686
0.029646967 0.045030586 -0.097886294
0.035881359 0.042038459 -0.091680601
0.042680796 0.038775146 -0.084912479
-0.039700434 0.036112238 -0.086445317
-0.033092882 0.032105274 -0.093084022
-0.027029475 0.028428283 -0.099176005
-0.021445654 0.025042128 -0.10478614
-0.016430134 0.021856232 -0.10881504
-0.01204877 0.018570205 -0.10881504
-0.007667399 0.015284178 -0.10881504
-0.003286029 0.011998152 -0.10881504
0.0010953378 0.0087121287 -0.10881504
0.0054767062 0.0054261009 -0.10881504
-0.018816127 0.0018643497 -0.10742824
0.043145284 0.068592869 -0.084147401
0.042046245 0.062302869 -0.085242614
0.0096112611 0.056073029 -0.10837379
0.041810594 0.052067414 -0.085472301
0.021690184 0.043831088 -0.1055768
-0.0081860339 0.047626887 -0.10835914
0.039704945 0.037861947 -0.08756946
0.025191644 0.03149182 -0.10207093
0.0051995511 0.030179381 -0.1083867
0.046046361 0.03413073 -0.058794763
0.045972247 0.023460437 -0.076914206
0.046016131 0.023769554 -0.064002655
-0.013496893 0.018685503 -0.10837284
0.02008285 0.0092448769 -0.10716501
0.039960317 0.0078554312 -0.087297752
0.046204835 0.02281566 -0.0059107891
0.022547467 0.00059369957 -0.10469706
0.045943443 3.3677115e-05 -0.076830715
-0.0059858784 -8.6582077e-05 -0.097009413
0.015655557 -7.8462326e-05 -0.060936857
0.039416552 -6.7242348e-05 -0.017114418
-0.0023860377 0.0021131341 0.013631291
-0.023984326 0.07243675 -0.062793881
-0.038534153 0.07231202 -0.088268101
-0.03545212 0.069289535 -0.091350593
-0.032370802 0.066267878 -0.094431855
-0.031604599 0.063095443 -0.095196679
-0.033180576 0.05971216 -0.093618043
-0.023888435 0.057145946 -0.10291442
0.011186734 0.050142564 -0.10904739
-0.042294756 0.049825255 -0.084493555
-0.022199532 0.048392747 -0.10459945
0.012527912 0.039857991 -0.10905643
-0.043415703 0.040073667 -0.083367243
-0.027573513 0.0384092 -0.099217281
-0.0079117473 0.033920642 -0.10903661
-0.044570226 0.0062352973 -0.020332169
-0.044750623 0.020709256 -0.069267288
-0.044780646 0.02051175 -0.078740865
-0.044704869 0.0079583796 -0.060413435
-0.003070794 0.013012653 -0.10905674
-0.031691592 0.010776042 -0.095081888
-0.025606878 0.0065333028 -0.10116775
-0.020156875 0.067513265 -0.10667436
-0.0012162691 0.066156872 -0.10911807
-0.042811781 0.06127869 -0.084014595
-0.019694898 0.05038853 -0.10714344
-0.039793573 0.050474532 -0.087037914
-0.0012996529 0.045755424 -0.10910115
-0.025767462 0.038223006 -0.10107366
-0.040424533 0.03684897 -0.086411864
0.0094922455 0.034951273 -0.10910621
-0.016657766 0.024575856 -0.10906425
-0.027569288 0.022064146 -0.099277921
-0.03166873 0.018960329 -0.095178001
-0.027623631 0.014856322 -0.09922637
-0.013199941 0.011069176 -0.10905771
-0.044655457 0.026158737 -0.026700113
-0.035681453 0.0063759387 -0.091169082
-0.012391288 0.0021309159 -0.10905141
-0.044745535 0.0086558741 -0.048491441
-0.020003188 -9.0334695e-05 -0.087445982
0.023641909 -8.1087426e-05 -0.093389414
-0.024114076 -7.4881842e-05 -0.046834432
-0.0011490326 -5.9651054e-05 -0.029102648
-0.020316748 0.02953068 0.025547793
-0.025240365 0.0072028325 0.020589311
-0.0032872823 0.0111895 0.027032552
-0.017325206 -0.00037512876 0.017918365
-0.045970287 0.024929473 -0.018215278
-0.035859056 -0.00037423018 -0.003424084
-0.027991444 -0.00037440579 -0.0030254493
0.0094755543 0.0096443743 0.0093850475
0.0093118269 0.03089224 -0.0096464632
-0.025837837 -0.000372001 -0.015989935
0.027511846 -0.00037181165 0.013607012
0.0021927524 0.008147236 -0.013674181
-0.035184991 -0.0003694499 -0.03574419
0.01393584 -0.00036833444 -0.0090884808
-0.0270827 -0.0003684171 -0.040159982
0.019068919 -0.00036725169 -0.015568459
-0.025464214 -0.00036591248 -0.049172901
0.025706785 -0.00036561469 -0.021729434
-0.0093107522 -0.00036566117 -0.049846064
-0.039577231 -0.00036324951 -0.075284369
0.027802518 -0.00036340614 -0.038277376
0.021356806 -0.00036135252 -0.049453985
0.035352137 -0.00036130947 -0.048294406
-0.0031905593 -0.00035838658 -0.082604356
-0.0097366665 -0.00035638636 -0.097754695
0.031329483 -0.00035542066 -0.084149964
0.03307686 0.02793137 0.012320685
0.031618532 0.0076036304 0.013795084
0.028998261 -0.00037563138 0.013401549
0.001589001 -0.00037537489 0.024891403
0.01669365 -0.00037437823 0.011319367
0.021427734 -0.0003737568 0.00402246
0.0446877 0.015154933 -0.024003051
-0.01130484 -0.00037277909 0.013493325
0.043825995 -0.00037177035 -0.023807477
0.017744604 -0.00037189943 -0.012666002
-0.014379332 0.0011285553 0.00092724321
0.033308633 -0.00037011437 -0.030968344
-0.0085605513 -0.00031778606 -0.010589736
0.03529314 -0.00036820536 -0.041397858
-0.013470194 -0.00036829661 -0.0170504
0.028194755 -0.00036664921 -0.04678129
-0.01637321 -0.0003667112 -0.025392871
0.036079451 -0.00036499841 -0.062046781
0.002322593 -0.00036454742 -0.047742534
-0.025368536 -0.00036307049 -0.037448619
-0.044104859 -0.00036305501 -0.032963704
-0.044334233 -0.00036201699 -0.040211249
-0.022259088 -0.00035986525 -0.061557133
0.019542409 -0.0003576309 -0.095426984
0.016956622 -0.00035614532 -0.10509539
-0.01539702 -0.00035406422 -0.10330819
-0.019253097 -0.00051494804 0.015797544
0.0029062068 0.0088861594 0.01348979
-0.019253027 -0.00051555567 0.0047955848
0.028879652 -0.00051494455 0.00067010999
0.022003544 -0.00051494804 -0.0048307735
0.019253166 -0.00051435066 -0.010331532
0.044007245 -0.00051434379 -0.014457206
-0.044007082 -0.00051494804 -0.019958207
-0.041256644 -0.00051494804 -0.024083873
-0.038506195 -0.00051495834 -0.028209532
-0.035755735 -0.00051495316 -0.032335199
-0.033005305 -0.00051495491 -0.036460862
-0.030254751 -0.00051555905 -0.040586542
-0.027504325 -0.00051555742 -0.044712193
-0.02475398 -0.00051494967 -0.048837852
-0.022003541 -0.00051495666 -0.052963521
-0.019253097 -0.00051494804 -0.05708918
-0.01650265 -0.00051495491 -0.061214831
-0.013752207 -0.00051496003 -0.065340504
-0.011001765 -0.00051494804 -0.069466174
-0.0082513215 -0.00051495491 -0.073591828
-0.0055008866 -0.00051495491 -0.07771749
-0.0013752182 -0.00051556429 -0.081843026
0.022003544 -0.00051494804 -0.085968822
-8.7441565e-10 -0.00051494804 -0.091469705
0.022003544 -0.00051494804 -0.096970588
-8.7441565e-10 -0.00051494804 -0.10522193
0.018988848 0.037744235 -0.10812503
0.0028054446 0.041950732 -0.10819406
0.042231441 0.020764317 -0.084862635
0.045971166 0.024919996 -0.073963821
0.01034863 -0.00037462957 -0.10451727
0.03733949 -0.00037352269 -0.081851497
0.018118473 -0.00037286687 -0.089070864
0.0096493103 -0.00037218179 -0.089489967
0.007212243 -0.0003710594 -0.086017586
0.010048308 -0.000370753 -0.079115249
0.019524489 -0.0003700059 -0.067928202
0.033777218 -0.00036878546 -0.053598426
-0.027181819 -0.00036763385 -0.087481357
-0.0019146068 -0.00036725515 -0.066004425
0.032454751 -0.00036685061 -0.038682424
-0.020987304 -0.00036610354 -0.067529075
0.017728833 -0.00036518087 -0.037125606
-0.041307326 -0.00036291729 -0.069152176
-0.012890122 -0.0003639019 -0.044681638
0.0090765664 -0.00036288629 -0.023913775
0.016424801 -0.00036130601 -0.011880514
-0.0058746086 0.022970496 0.012290203
-0.028701242 -0.00035794245 -0.023809528
-0.014662482 -0.000357037 -0.003701278
-0.038471602 -0.00035549467 -0.0062805275
-0.024246583 0.054195654 -0.10235333
-0.010149992 0.032909915 -0.10901862
-0.032622807 0.020631123 -0.093999907
-0.034265552 0.0088820523 -0.092365213
-0.019882187 -0.00037509605 -0.10008228
-0.044639505 0.028555172 -0.064017996
-0.0056829839 -0.00037335572 -0.098326758
-0.014563533 -0.00037269646 -0.088075772
-0.015365125 -0.00037242618 -0.082657672
-0.010867557 -0.00037085969 -0.080345057
-0.0018780652 -0.00036967715 -0.080631301
0.014048741 -0.00036845147 -0.085018031
-0.044664793 0.0054669701 -0.040087432
-0.017219195 -0.00036829489 -0.056157343
0.018895613 -0.00036698318 -0.072470702
-0.031693839 -0.00036623783 -0.037074432
0.0088847689 -0.00036436151 -0.055758756
0.043744009 -0.00036291729 -0.070658118
-0.01783747 -0.000363067 -0.028023425
0.0063219606 -0.000361535 -0.035858244
0.023766939 -0.00036097557 -0.039251026
0.022259768 -0.00035882037 -0.03061677
0.0092765428 0.018096011 0.010054613
0.03136646 -0.00035727804 -0.016946323
0.027047329 -0.00035631403 -0.0023239106
0.022288108 -0.00035356844 0.01998209
0.0087261638 0.07253322 -0.077480011
-0.0045265025 0.072526135 -0.099304736
-0.023335112 0.072520539 -0.08755862
-0.025735846 0.071844816 -0.10150901
-0.045287095 0.070741244 -0.058658235
-0.0053523546 0.036452863 0.025958089
-0.044817422 0.068611935 -0.082408525
-0.0020406807 0.036443453 -0.034901995
-0.021971714 0.036442731 -0.00142307
-0.034764547 0.056737285 -0.092487402
-0.045272011 0.053186666 -0.060872376
-0.039938055 0.036434188 -0.011820177
-0.042842139 0.050218966 -0.084408022
-0.043455265 0.036429819 -0.037388809
-0.033122029 0.039216526 -0.094152518
-0.045242466 0.031636138 -0.045269534
-0.03457744 0.032175086 -0.092703961
-0.04522606 0.02053589 -0.035461854
-0.045260403 0.028481625 -0.079134755
-0.045189597 0.0018504238 -0.0044310372
-0.045208149 0.0044207983 -0.030743336
-0.043811284 0.013705612 -0.083481133
0.035218924 0.072551943 -0.088052243
0.01397586 0.072539598 -0.056411017
-0.019385621 0.068721555 -0.10826662
-0.037946355 0.072525047 -0.080372624
-0.044204917 0.072520204 -0.059256345
-0.043770518 0.067984827 -0.054623965
-0.045748696 0.063697599 -0.062103126
0.024596712 0.036447398 -0.017844014
-0.045404173 0.058138106 -0.054639615
0.0028993285 0.036442358 -0.025640439
0.01131468 0.036437761 0.013984376
-0.04575986 0.047055341 -0.061234672
-0.022428188 0.036432847 -0.034519218
-0.014613374 0.036431521 0.00040421149
-0.045775026 0.033311263 -0.073688574
-0.040625416 0.036425896 -0.034681745
-0.031695038 0.036425449 0.000793354
-0.045778409 0.02367766 -0.065464891
-0.045748144 0.034289658 -0.015699977
-0.042150602 0.0060241492 -0.085537963
-0.045756668 0.025385115 -0.019227069
-0.04579616 0.0030897292 -0.07301341
-0.038819458 0.019534787 0.006423437
-0.02332571 0.0056447391 0.021871768
-0.045766931 0.0060277241 -0.010381004
-0.033332128 0.06993302 -0.094286464
-0.04564032 0.060587633 -0.075772963
-0.045640316 0.054403141 -0.067114674
-0.045640327 0.048218649 -0.060930181
-0.043738276 0.042207491 -0.054855987
-0.045639846 0.035849698 -0.048561219
-0.045639832 0.033375889 -0.020112464
-0.045639832 0.03090209 -0.0027958311
-0.019824117 0.028428283 0.025000149
-0.043953899 0.02467568 -0.083613478
-0.045640327 0.022243794 -0.065877773
-0.04564032 0.01977 -0.0485612
-0.045640327 0.017296202 -0.031244632
-0.045639832 0.014822365 -0.013927953
-0.039490804 0.011686335 0.0054262816
-0.027440401 0.0062255473 -0.10020658
-0.045640327 0.0061641214 -0.077009857
-0.04564032 0.0036903247 -0.055982593
-0.045640327 0.0012165299 -0.0065066763
-0.045877408 0.052834693 -0.064399049
-0.029187607 0.035609208 0.016146779
-0.045819335 0.025979433 -0.01174949
-0.045874197 0.040586635 -0.079560503
-0.045825548 0.022665702 -0.027260721
-0.035915792 0.016752742 0.0094477264
-0.045846127 0.023677029 -0.061243705
-0.04581169 0.011030462 -0.022299916
-0.039198942 0.0056030126 0.0061820927
-0.045846734 0.015933964 -0.075613305
-0.045816969 0.0055349353 -0.041445468
-0.041431725 -0.00019666273 -0.015608648
-0.027675977 -0.00019473306 0.0072292476
-0.045834068 0.0025881152 -0.076484501
-0.036508773 -0.00019098046 -0.052505694
-0.022406014 -0.00018911791 -0.031919733
0.0048876666 0.0056527741 -0.013345028
0.0077968994 -0.00018063323 0.010992911
-0.021035979 -0.00017743319 -0.095127784
-0.0022263387 -0.00017386992 -0.068292975
0.026096215 -0.00016943908 -0.018363848
0.029975321 -0.00016409763 -0.048419643
-0.033145081 0.070665114 -0.094308838
-0.045308251 0.056824531 -0.072143093
-0.045318648 0.04521057 -0.078674145
-0.037750907 0.039510135 -0.089649089
-0.020750593 0.039469715 -0.10667595
-0.045310408 0.035333302 -0.038664885
-0.021158539 0.02739739 -0.10624904
-0.045320995 0.023529064 -0.045409329
-0.031348631 0.015353751 -0.096024588
-0.045330293 0.0139901 -0.052833457
-0.019853722 0.01232432 -0.10753361
-0.045346718 0.0023297444 -0.073117666
-0.045325801 0.0079713669 -0.033774033
-0.025799088 0.00035171278 -0.10156082
-0.032945398 -0.00019201673 -0.071626864
-0.038548581 -0.00019050363 -0.042104095
-0.044516109 -0.00018936064 -0.010666347
-0.0034664117 -0.00018365945 -0.092368737
-0.006717789 -0.00018088971 -0.065169394
-0.0091684898 -0.00017738843 -0.038694382
-0.013963103 -0.00017527456 -0.0045693987
0.027806291 -0.00017061822 -0.078296788
0.013573386 0.0018962005 0.0013856128
0.038935132 -0.00015804353 -0.02147132
-0.0072120242 0.072543472 -0.089752324
-0.038050637 0.059304424 -0.053085245
-0.0057654856 0.062715732 -0.053202525
0.027727619 0.068528369 -0.053331312
0.031104611 0.064344108 -0.05333399
0.013587211 0.052599058 -0.053247701
-0.026985636 0.036447801 -0.01158747
0.029760163 0.052244425 -0.053303011
-0.019480376 0.036441989 0.017767394
-4.2006835e-05 0.036439903 -0.015517237
0.01829458 0.036436196 -0.04692113
0.045239717 0.043135639 -0.071028337
-0.013793026 0.019755024 0.002379339
0.030922106 0.036428045 -0.028582187
0.045236219 0.033949625 -0.063038118
0.028574275 0.036425453 0.0089636426
0.045257568 0.035268549 -0.027477795
0.045209832 0.017529678 -0.079809785
0.04526221 0.031569459 -0.013198638
0.045207687 0.010460527 -0.072393738
0.04525103 0.02208215 -0.017961374
0.028947977 0.014486972 0.01712843
0.031934924 0.010820304 0.014142617
0.030977314 0.0029270723 0.015110233
-0.032252159 0.072540462 -0.083620347
0.0017345446 0.072529964 -0.074182436
0.0086283349 0.072525121 -0.098508582
0.034976076 0.072520368 -0.065591648
-0.010453248 0.036458537 0.020309865
0.045726534 0.071097314 -0.067015983
0.030323045 0.066792168 -0.096192516
-0.0025278919 0.027030567 0.014360341
0.045738824 0.060245331 -0.054910343
0.041119602 0.061252344 -0.085403822
0.035503555 0.036437247 -0.00020500284
0.045745898 0.050720286 -0.054612029
0.035477627 0.050049432 -0.091020308
0.044686284 0.036430899 -0.027569482
0.045740608 0.046158556 -0.077164225
0.045781404 0.025909858 -0.015745245
0.045747425 0.038073845 -0.073816046
0.045783538 0.018650895 -0.021245994
0.042031504 0.030693782 -0.084447421
0.04577516 0.016684484 -0.044638354
0.045798149 0.0019203651 -0.015536296
0.045785859 0.0044348538 -0.040756438
0.045779798 0.0027216652 -0.05764306
0.045640316 0.068009026 -0.054745696
0.045640327 0.06182453 -0.079483658
0.034973025 0.0575842 -0.091146551
0.025118247 0.052345723 -0.10095684
0.0199624 0.044374108 -0.053335518
0.045639846 0.035849698 -0.0027958411
0.045639832 0.033375889 -0.020112474
0.04563982 0.03090209 -0.037429098
0.045640316 0.028428283 -0.054745696
0.045640327 0.025954487 -0.072062261
0.033094883 0.023064975 -0.093016393
0.033706162 0.019077938 0.012686192
0.045639839 0.017296167 -0.0089803468
0.045640327 0.014822408 -0.026297048
0.04564032 0.012348613 -0.043613616
0.045640327 0.0098748161 -0.060930189
0.045640331 0.0074010184 -0.078246757
0.023000041 0.0013636168 -0.10306564
0.045640327 0.0012165299 -0.031244643
0.04586003 0.061154634 -0.069527015
0.045851234 0.051688287 -0.069357879
0.045852464 0.046089932 -0.059275482
0.029170696 0.040794786 -0.097376026
0.045839347 0.030969458 -0.058083199
0.045813929 0.019994035 -0.080090694
0.045832962 0.022460163 -0.054133818
0.0257446 0.020879548 -0.10082184
0.045829441 0.016123319 -0.048876967
0.035307061 0.0096521256 -0.09128312
0.045839008 0.013486139 -0.027603805
0.045802541 0.0014917464 -0.069663174
0.02686185 0.002890185 -0.099726699
0.045827612 0.0029337481 -0.028906688
0.035264518 -0.00019093571 -0.058241688
0.019759487 -0.00018796459 -0.083502501
0.042801913 -0.00018692145 0.0017279267
0.028178981 -0.0001825543 -0.018490549
0.013015409 -0.00017891184 -0.038831182
-0.0032739164 -0.00017743834 -0.060691163
-0.023024669 -0.00017416256 -0.089991882
-0.0096509969 -0.00017023091 -0.017923316
-0.016889732 -0.00016164467 0.0050864122
0.045282498 0.066012107 -0.066180602
0.039154109 0.052983541 -0.053199504
0.045297317 0.045610864 -0.063951425
0.04533682 0.023442512 -0.0071022161
0.045307741 0.034467451 -0.056503627
0.038609099 0.01684363 0.0075194272
0.045330472 0.019176573 -0.030091433
0.045305781 0.02696934 -0.072905526
0.041723605 0.0058035501 0.0043836096
0.045340579 0.0077475379 -0.025006738
0.04532278 0.012191623 -0.057390574
0.028466113 0.00127017 0.017653234
0.035480388 -0.00019592428 -0.0065183574
0.04005618 -0.00019437332 -0.032063391
0.044476997 -0.00019296177 -0.058040854
0.0049634669 -0.00018747056 0.02203095
-0.012234347 0.0091746477 -0.0054082354
0.010477474 -0.00018406395 -0.027331747
0.013019253 -0.00018073822 -0.053341847
0.016279692 -0.00017742973 -0.082675681
-0.02677159 -0.00017098316 -0.0042514834
-0.010236709 -0.00016903455 -0.072727233
-0.016263753 -0.00016355712 -0.098884292
0.028311476 0.036098946 0.0053512054
-0.019577516 0.036095787 0.0049373782
-0.030558553 0.072168313 -0.055006649
-0.0092166513 0.072167113 -0.065998666
0.022633152 0.072166272 -0.078800499
-0.035223816 0.072164521 -0.0706231
-0.011982623 0.07216379 -0.081058137
0.0078094346 0.072162047 -0.090467237
0.023365701 0.072159626 -0.098710984
-0.038538527 0.070451647 -0.087169565
-0.030426225 0.072158143 -0.095244177
-0.026813529 0.070664719 -0.098921627
-0.028220592 0.064794205 -0.097495221
-0.035501663 0.053154834 -0.090165488
0.023556801 0.046918511 -0.10347932
-0.00060016353 0.05381323 -0.10828715
-0.025665686 0.044081461 -0.099998839
0.0040654414 0.038904466 -0.10829359
0.021965168 0.019480173 -0.10516169
0.015581202 0.016773909 -0.10830433
0.017328545 0.0027489713 -0.10831026
0.014286671 0.036100276 0.017871706
0.023198545 0.036095787 0.0056934096
0.020559417 0.072168313 -0.057094358
0.045577213 0.072165921 -0.05840534
-0.012622604 0.072167024 -0.074701034
0.021378914 0.072165087 -0.073514491
-0.034751441 0.072163679 -0.088989556
-0.0072043287 0.072162181 -0.088613741
0.014581816 0.072160766 -0.089152806
0.031057838 0.072159432 -0.090535134
0.041597504 0.064359047 -0.085073821
-0.034913551 0.05021419 -0.090475805
-0.038950711 0.039205808 -0.086375043
0.040417645 0.049856596 -0.086282924
0.028028296 0.05600531 -0.098636515
0.010753769 0.057988595 -0.10803941
-0.014543473 0.045544211 -0.10802417
0.020665109 0.045103252 -0.10601013
0.041706033 0.011471463 -0.085080072
-0.023086337 0.0093140695 -0.10219993
0.0021203985 0.014919253 -0.10799894
0.016613871 0.036977462 0.022057397
0.017816337 0.036975641 0.0070182644
0.0057727322 0.020322492 0.012740385
0.020430058 0.036973149 -0.011475108
0.044968911 0.036972336 -0.020119442
-0.016388159 0.03697123 -0.026359737
-0.003736244 0.073059075 -0.058470584
0.019617103 0.073058136 -0.062991813
-0.043686155 0.07305754 -0.065928727
-0.013146465 0.073056638 -0.070222959
0.020014239 0.073055781 -0.0743891
-0.033805832 0.073055223 -0.077098168
0.0057437718 0.073054411 -0.081063218
0.041894142 0.073053978 -0.084914707
-0.015701696 0.073053464 -0.08742144
0.0011058279 0.073053062 -0.091093913
0.0054527926 0.073052302 -0.094664738
-0.0021513987 0.073051572 -0.098138228
-0.020163439 0.073051214 -0.10151849
0.0072978237 0.07305029 -0.10588642
0.0085009681 0.068499617 -0.10873801
-0.022955285 0.031367786 -0.10305817
-0.019018568 0.013152662 -0.10692465
0.0022379318 0.037041232 0.021763774
-0.03646316 0.037040737 -0.0092771985
0.028604627 0.037040919 0.017016286
-0.028765861 0.03704055 -0.02213282
-0.019426866 0.037040085 -0.025131054
0.0041613686 0.037039742 -0.017783346
-0.039999187 0.073133111 -0.065681502
-0.0068658642 0.037039191 -0.034068417
-0.043696098 0.073133118 -0.075652681
0.00073336728 0.073132664 -0.054884717
-0.041928735 0.073132671 -0.082288809
-0.0023683878 0.073132209 -0.064178474
0.030308072 0.037037812 -0.037547402
-0.022188216 0.073131785 -0.082822599
0.00075596425 0.07313136 -0.074016243
0.016105313 0.07313136 -0.069481082
0.035317663 0.073130943 -0.062673151
-0.02481444 0.07313139 -0.099766068
-0.016669882 0.073130995 -0.099174157
-0.014677302 0.073131002 -0.1020347
0.045615658 0.073130161 -0.072829977
0.026377797 0.07313019 -0.087679304
0.037332267 0.07312981 -0.086478665
0.027456559 0.046645638 -0.09946505
-0.02759324 0.072129503 -0.056221034
-0.03306384 0.07213068 -0.077616237
-0.042101324 0.036040369 -0.040769543
-0.0019945821 0.036041122 0.018851489
-0.023499802 0.036038972 -0.029413033
-0.01214172 0.072127208 -0.074717179
-0.020823387 0.072127834 -0.097239874
0.013858678 0.036037706 0.0091191353
0.0054757376 0.036036383 -0.014348553
-0.0019781929 0.036036443 -0.035956964
0.012121954 0.072124198 -0.06522274
0.0054067047 0.072124809 -0.08345183
-0.0023267253 0.072124615 -0.10342781
0.02820548 0.036034737 -0.01473186
0.029950853 0.072122425 -0.058466163
0.018356765 0.072123021 -0.085129403
0.0421126 0.036033716 -0.013782067
0.034490883 0.0721213 -0.068806186
0.045433413 0.01251963 -0.003300874
0.035591032 0.072120756 -0.07939928
0.045312222 0.071418568 -0.068355694
0.04283781 0.072119638 -0.080545552
0.045384437 0.028589517 -0.056254521
0.037998766 0.038948089 -0.087872013
-0.044205841 0.07209973 -0.072234772
-0.031677138 0.072099209 -0.070312172
-0.024123572 0.072098896 -0.068655215
-0.039086651 0.036004476 -0.03618912
-0.016772695 0.072098568 -0.090617426
-0.030024234 0.036004871 -0.015160162
-0.009616456 0.07209827 -0.053841624
-0.006806741 0.072098151 -0.07951194
-0.0040264721 0.072098039 -0.098519146
-0.014306195 0.036004499 0.023857778
-0.011842849 0.033555795 0.0084177172
-0.013415638 0.019771736 -0.0031849216
-0.0042305519 0.036002271 -0.017912654
-0.00093990384 0.036003031 -0.038300991
0.013358445 0.072097316 -0.070821382
0.015931904 0.072097197 -0.10145827
0.010316993 0.036002707 -0.015487261
0.013461206 0.036002718 -0.043042645
0.024738193 0.072096817 -0.054551303
0.02719846 0.072096728 -0.071353868
0.02963458 0.072096638 -0.095175155
0.02723117 0.036003124 -0.0252412
0.03562158 0.072096378 -0.076839052
0.034623273 0.036002107 -0.043145191
0.038973913 0.036002483 -0.024178945
0.043262564 0.036002163 -0.031585675
0.025678331 0.037041601 0.012656554
-0.0069173751 0.03704099 0.019944122
0.033534843 0.037040371 -0.014167918
0.036836259 0.037039913 -0.024629373
-0.029635364 0.037040319 0.0070386482
0.034617018 0.073133595 -0.057785403
-0.017494369 0.03703963 -0.012186365
0.018679921 0.073133118 -0.056672756
-0.02412869 0.037039079 -0.018326832
0.018322177 0.073132202 -0.064240873
-0.022471983 0.037038531 -0.028933246
0.014772795 0.073131755 -0.069776155
-0.03419565 0.037038729 -0.03163695
-0.0055274135 0.07313177 -0.065541178
0.016600359 0.073130898 -0.082504943
0.0311257 0.073131368 -0.095058195
-0.030102462 0.073131382 -0.062881522
-0.016425092 0.073130958 -0.074840255
-0.0090482896 0.073130541 -0.083135895
-0.0068203532 0.073130138 -0.088427849
-0.011623294 0.073130146 -0.089642495
-0.024290217 0.073130168 -0.086305179
-0.0038901293 0.073129788 -0.10306652
-0.021819625 0.073129408 -0.097831488
0.041020621 0.072100125 -0.055666599
0.028630855 0.072099075 -0.098286502
0.022637442 0.072098814 -0.071241826
0.039086651 0.036004465 0.0050537437
0.015326127 0.072098516 -0.060455628
0.030024612 0.036004093 -0.010276754
0.0082078893 0.072098218 -0.096356608
0.0054129497 0.072098106 -0.070448868
0.01234443 0.048900362 -0.054983903
0.014306498 0.036003739 -0.039728735
0.010913215 0.036002994 -0.023947069
0.012644213 0.021908073 -0.0070493701
0.011792518 0.013924243 0.0066672708
0.00093966565 0.036003765 0.020875532
-0.014648425 0.072097257 -0.081861034
-0.0071411491 0.036002692 -0.050700512
-0.010316995 0.03600271 -0.015487265
-0.013461208 0.036002725 0.02394243
-0.025971368 0.072096787 -0.089508362
-0.028419515 0.072096668 -0.06769111
-0.024223488 0.036002398 -0.035613231
-0.027231051 0.036002412 0.010495408
-0.031687807 0.036002088 -0.049043853
-0.040307723 0.072096176 -0.074201033
-0.043763705 0.072096042 -0.080978215
-0.045000687 0.040667295 -0.067222483
0.039288975 0.072131716 -0.073741816
0.018139441 0.03604259 0.022104818
0.022480024 0.036041841 -0.00019345579
0.01724384 0.072128914 -0.066835172
0.01563826 0.036041122 -0.010595142
0.02450976 0.072128072 -0.097345002
0.0091944421 0.072127409 -0.075964883
-0.0027792987 0.072126359 -0.060562029
0.0085242726 0.036037728 -0.035916258
-0.0063231541 0.036036406 -0.016804149
-0.020119943 0.036037136 0.00054234208
0.005020048 0.072124809 -0.10252685
-0.0079993913 0.072124623 -0.084536903
-0.02190607 0.072124049 -0.064811908
-0.023821443 0.036034118 -0.026349932
-0.0067030089 0.072122641 -0.10644875
-0.025119923 0.072122477 -0.078107238
-0.032889016 0.036033124 -0.034026165
-0.02483451 0.072121531 -0.091582932
-0.039507993 0.03603211 -0.038317047
-0.040852074 0.072120622 -0.074660905
-0.043385234 0.072120234 -0.077196114
-0.044564579 0.011602662 -0.039738376
-0.020429801 0.020570777 -0.10605361
-0.044609264 0.020579509 -0.077063225
-0.018618975 0.072184399 -0.087284952
-0.021412211 0.072180361 -0.072725758
0.011790238 0.072177753 -0.070070408
0.02853296 0.072175689 -0.064654544
-0.042030428 0.062954456 -0.054132234
-0.01700026 0.060936607 -0.054134194
0.013322194 0.05980606 -0.05413622
-0.041499462 0.04427322 -0.054122612
0.0046970877 0.045467041 -0.054129194
-0.041438702 0.036083374 -0.046062108
-0.0017612267 0.036082152 -0.046801515
0.032783598 0.03608099 -0.046873529
-0.031836238 0.036077563 -0.024437463
-0.015544804 0.036076095 -0.021524375
-0.0083357273 0.03607472 -0.017025521
-0.0071413144 0.035094317 -0.012435474
-0.010917336 0.031129083 -0.0095329043
-0.011289407 0.024826795 -0.0091579938
-0.0068256231 0.014580083 -0.012576407
0.0037693367 0.0092622014 -0.0131244
0.028430635 0.036067221 0.0059182709
-0.014149562 0.036064051 0.020572376
0.015860345 0.036063917 0.01842504
-0.0098253256 0.032668132 0.027067648
0.040848069 0.001802375 0.0034715249
0.0039380016 0.018511554 0.027071804
-0.0026158637 0.072185792 -0.099282585
0.029401764 0.072181948 -0.07786493
-0.015809294 0.072178483 -0.074026763
0.0031027156 0.072177067 -0.060947891
0.019642662 0.068961084 -0.054472126
0.042480566 0.060913265 -0.054483231
-0.021862665 0.062522165 -0.054469127
0.011210089 0.052401755 -0.054483779
-0.036199942 0.052088112 -0.054476652
0.010023513 0.038761619 -0.054495223
-0.035048544 0.038161259 -0.05448873
0.0022896128 0.036080331 -0.041889079
0.03184947 0.036078736 -0.028828874
-0.039525181 0.036077868 -0.035090286
-0.027337879 0.03607643 -0.026440859
-0.023887763 0.036075059 -0.019911055
-0.027229808 0.036073297 -0.015074229
-0.02912239 0.036071617 -0.010190181
-0.027131489 0.036070444 -0.0047330782
-0.02151406 0.036068488 0.0012581582
-0.012504982 0.03606784 0.0077504851
0.017468546 0.036064807 0.018423473
-0.029445041 0.036064491 0.014235046
0.0028515321 0.036062431 0.024984511
-0.018421827 0.036061812 0.025641389
-0.009136402 0.025197484 0.026794331
0.0021491989 0.0070242654 0.026775582
0.016576933 0.073066339 -0.094836779
0.029391756 0.073064655 -0.086093761
-0.027245872 0.073063076 -0.077774242
-0.014083983 0.073062837 -0.071793407
-0.0041511217 0.073062167 -0.066022769
-0.0013598583 0.073061965 -0.060450595
-0.0026736422 0.073061757 -0.055067211
-0.0054528411 0.068535231 -0.053730823
0.0014087696 0.062113971 -0.053733334
0.017489703 0.0552487 -0.053736016
0.043780491 0.047891706 -0.053738885
-0.0079268599 0.037222017 -0.05374274
0.034399327 0.036969449 -0.048238665
-0.016855916 0.036968119 -0.040934771
0.015097205 0.036967799 -0.035645235
-0.045897953 0.036965314 -0.028832017
-0.023350893 0.036965661 -0.023891183
-0.0028777639 0.036965393 -0.01908979
0.011351352 0.036963936 -0.014422239
0.022391899 0.036963113 -0.0098822005
0.030373193 0.036961723 -0.0054650162
0.032692887 0.036960941 -0.0011653068
0.012445197 0.01125435 -0.0037599977
-0.027506512 0.036959831 0.011073028
0.0025756611 0.03695944 0.016215339
-0.018920135 0.03695881 0.022405216
0.012757096 0.031859472 0.027499666
-0.00065440667 0.073135167 -0.10380249
-0.0047916593 0.073134616 -0.098618649
0.03206031 0.073135115 -0.072024226
-0.015592427 0.073134102 -0.092009902
-0.008343406 0.073134102 -0.082552597
-0.0035159183 0.073134094 -0.074571259
9.0461646e-05 0.073134087 -0.067377709
0.0036351935 0.073133595 -0.060307603
0.0061955526 0.072372057 -0.054322306
0.0062933401 0.063133366 -0.05434639
0.0030965074 0.056551799 -0.054362189
-0.0019441762 0.051458724 -0.054373
-0.010289957 0.050126232 -0.05437265
-0.020011066 0.050742801 -0.054366786
-0.03307936 0.056841742 -0.054345414
-0.044034399 0.060762156 -0.054330483
0.034231111 0.0370383 -0.014108405
0.022427797 0.037037998 -0.015447187
0.013406946 0.037038408 -0.015281095
0.0083925342 0.037038092 -0.012909345
0.013685035 0.037036411 -0.0047309292
-0.043930877 0.037036031 -0.030892853
-0.033983331 0.037035666 -0.018595342
0.017936489 0.037035301 0.01754668
-0.016606743 0.03703551 0.0057374248
-0.013307433 0.037035819 0.013821638
-0.011969219 0.03703538 0.022167085
0.044745557 0.072133146 -0.058651119
0.023632828 0.072133042 -0.075502053
0.023623122 0.072130993 -0.059000224
0.01299988 0.072130427 -0.062649526
-0.0049452148 0.072129861 -0.08038298
0.038464352 0.036041845 -0.053423632
0.039938565 0.036040395 -0.037125159
0.026216013 0.036040422 -0.049050309
-0.022702919 0.072127081 -0.071295872
0.019557526 0.03603908 -0.0401593
-0.037885036 0.072126329 -0.08321844
-0.015246015 0.057717294 -0.054892853
0.0136362 0.036035836 -0.023226157
-0.045335762 0.070494667 -0.077922352
-0.021992477 0.048691936 -0.054913245
0.0015746958 0.036036063 -0.019362222
0.018607574 0.036034197 0.018891828
-0.026611501 0.036033679 -0.053436551
-0.0083062556 0.036032498 -0.013176805
-0.037442509 0.037817203 -0.054923475
-0.045408428 0.023664059 -0.07198938
-0.0047201216 0.036031026 0.019275764
-0.020992275 0.036031172 -0.001248966
-0.024303472 0.036030725 0.001698171
-0.045427632 0.0041348524 -0.045271885
-0.023345903 0.032020975 0.021283466
-0.045391589 0.016509848 -0.0096183978
-0.043685433 0.073135689 -0.080388695
-0.022251459 0.073135138 -0.085039578
-0.045061514 0.073135123 -0.064597279
-0.015543238 0.073134601 -0.076016344
-0.00047838886 0.073134087 -0.079274818
0.010870397 0.073133595 -0.080503918
0.022022655 0.073133595 -0.081711419
0.03185216 0.073133111 -0.082252279
0.040392771 0.073132634 -0.082143262
0.043228701 0.073132634 -0.078859374
0.039400473 0.073132657 -0.071850702
0.034542214 0.073132649 -0.064333707
0.026510136 0.073133118 -0.055081546
0.015569395 0.050782908 -0.053565998
0.00058296317 0.037037499 -0.045066912
-0.014304146 0.037037183 -0.030982932
-0.02763428 0.0370376 -0.017877085
-0.03813551 0.037038006 -0.0064741359
0.043065019 0.037036393 -0.049305044
0.038608026 0.037036791 -0.041495118
0.043193772 0.037036501 -0.038932584
-0.022702631 0.037036128 0.0054967343
-0.016929083 0.037035763 0.0088472292
0.037222587 0.037035398 -0.015571509
0.018362835 0.037035607 0.003165222
0.022334309 0.037035245 0.0071265288
0.013675845 0.037035465 0.01969065
-0.027246851 0.072135054 -0.095172063
-0.021889541 0.072133444 -0.082942747
-0.0034960951 0.072132327 -0.099878296
0.0040665236 0.072131246 -0.097749822
0.00085885089 0.072129779 -0.076619506
-0.040933467 0.036041833 -0.048906554
-0.034268059 0.036041118 -0.047497753
-0.042961482 0.036039006 -0.018417878
0.015287827 0.072126552 -0.060999859
-0.038210377 0.036037005 -0.0060382332
-0.0099099223 0.036038432 -0.049676381
0.031969033 0.072125606 -0.069320418
-0.023393668 0.036034506 -0.0053772503
-0.00065654033 0.036036577 -0.039382566
0.035539016 0.072123937 -0.055148359
-0.01971619 0.036034763 0.01382494
0.0022390462 0.036035482 -0.019244235
0.02378495 0.036033645 -0.051699173
-0.011359788 0.036032502 0.022800872
0.0223493 0.036033206 -0.032217216
0.017535498 0.036030874 -0.013661698
0.013528169 0.036031634 0.0031625475
0.044567443 0.015875679 -0.063026629
0.04460324 0.026822405 -0.045018964
0.01971106 0.036030289 0.018874682
0.04461037 0.024425698 -0.024980614
0.042466827 0.036027309 -0.00041460866
0.037681051 0.072241627 -0.081515394
0.0079165231 0.072230183 -0.057141475
-0.038220566 0.069828801 -0.054520816
0.005610202 0.062023781 -0.054541599
-0.034864504 0.05901631 -0.05452903
0.019376412 0.049235832 -0.054554455
-0.012475625 0.045541335 -0.054545045
-0.039427657 0.04172451 -0.054538239
0.002669821 0.036129922 -0.043924809
0.026956316 0.036126424 -0.025836995
0.033799652 0.03612297 -0.01372742
0.02694102 0.036119267 -0.0063969935
0.014450857 0.036114015 -0.0014657844
0.0087439204 0.027152056 -0.010577871
0.005392368 0.021410262 -0.012861334
-0.0061307084 0.036107153 0.014096371
-0.0059473985 0.036103137 0.020176794
-0.0016034546 0.035947882 0.026772987
0.0083227502 0.029850913 0.026765134
0.039079409 0.0013224604 0.0049500614
-0.027305689 0.020969741 0.018077217
-0.0016040839 0.017886372 0.02676102
-0.027571043 0.010280969 0.01782644
-0.015660748 0.0095677814 0.026760394
0.017402502 0.072265856 -0.075306281
-0.028543161 0.067371465 -0.05430394
0.02236014 0.062659346 -0.054304205
-0.016126411 0.056269865 -0.054304853
0.03573801 0.051395871 -0.054305147
-0.0032809407 0.044785142 -0.054304961
-0.03147953 0.038042542 -0.054305643
0.023486389 0.036156535 -0.042234119
-0.043291263 0.036144339 -0.020863466
-0.041335717 0.036137428 -0.0076383925
0.029525429 0.036133207 0.00012810869
0.0080259331 0.027988818 -0.010941325
-0.010763717 0.036125768 0.019551784
-0.028862566 0.031395435 0.016741307
0.035675071 0.02527057 0.0086337328
0.018797504 0.02960632 0.025593854
0.0083236163 0.026827643 0.026930431
