# .PCD v0.7 - Point Cloud Data file format
VERSION 0.7
FIELDS x y z
SIZE 4 4 4
TYPE F F F
COUNT 1 1 1
WIDTH 1540
HEIGHT 1
VIEWPOINT 0 0 0 1 0 0 0
POINTS 1540
DATA ascii
186.08968 5.34128 134.59303
192.93471 4.6544328 134.57913
-171.4615 10.280312 130.09187
-164.22614 10.34462 137.34541
-153.72688 10.338844 136.51202
-0.54021454 15.467522 131.10553
0.70745182 15.467506 138.84259
167.52965 10.277931 132.10629
176.13782 10.339996 136.18425
184.01378 10.337166 132.87479
190.80811 10.345619 134.54568
-1.9935241 23.016808 135.30902
-4.0706639 30.566093 135.644
-172.48074 156.44528 135.03061
-166.49557 156.55113 135.01375
-154.7097 156.77516 135.45317
-147.7551 157.83853 136.14714
167.22459 156.89311 135.04759
174.72026 156.61615 134.88383
186.06485 156.02542 135.2099
193.04579 157.08173 134.92238
-172.54955 163.57094 135.31525
-166.12431 166.1048 135.69554
-154.89514 164.78246 134.4668
-147.38766 163.73006 135.24301
167.24741 163.91603 135.98969
175.22194 164.61453 135.00073
186.75429 165.34155 135.38725
193.02922 164.67702 134.81181
-172.57463 174.13171 134.88721
-165.85632 175.42924 135.25099
-154.65974 175.46259 134.99905
-148.06059 175.73805 135.19951
167.19281 174.39177 135.20093
174.87743 175.84941 135.48567
185.63452 175.00934 134.75685
193.11192 174.50595 134.76202
-170.03749 180.30478 137.85001
-164.68399 180.31419 136.0708
-155.74196 180.3103 134.77138
-148.05276 180.31969 138.24896
168.89375 180.25204 136.37408
174.80437 180.31143 134.42293
183.9817 180.30998 134.50699
191.2438 180.31787 135.25443
124.92482 -422.3912 142.62555
122.84767 -414.84192 142.96053
120.77053 -407.2926 143.2955
117.65482 -395.96869 143.79794
114.53911 -384.64478 144.30038
112.46197 -377.09546 144.63536
108.30768 -361.99689 145.3053
110.38482 -369.54617 144.97034
-223.10237 -351.20285 143.7636
-215.4921 -351.33563 143.5302
-205.76686 -351.62003 143.85059
-198.43993 -351.01181 142.97238
106.23054 -354.4476 145.64026
-232.90121 -343.20822 144.86194
-225.6815 -345.37045 145.20155
-214.84988 -347.29706 145.29433
-204.20105 -346.94098 145.52092
-195.78133 -344.05563 144.85481
-187.86185 -342.49127 144.97098
-234.73979 -334.91031 145.37263
-228.09534 -338.44373 144.98257
-192.84688 -336.3002 144.92593
-187.07994 -335.03497 145.2739
219.22852 -330.48267 144.71753
225.96495 -332.43808 144.27348
235.01265 -332.74432 144.71774
244.28285 -332.74466 144.65947
252.67252 -332.23288 143.65909
-234.20721 -325.32428 145.33354
-228.62509 -322.14185 143.41678
-193.97505 -325.26456 144.91565
-188.06044 -326.14877 146.0229
97.921974 -324.25049 146.98013
216.15291 -324.33939 145.17709
223.27921 -326.68237 145.33551
234.55034 -329.3255 148.07529
246.53323 -329.42233 146.18253
255.55116 -325.8345 144.91513
262.48102 -322.90729 145.45015
-232.89407 -315.63928 145.0631
-227.93719 -315.18616 144.44771
-200.07736 -318.65762 144.01544
-195.28479 -315.25555 145.04642
-188.48456 -313.26578 145.80669
95.844826 -316.70117 147.31511
214.53795 -315.55338 144.76378
221.12666 -315.80112 142.48167
258.40686 -315.43756 144.68379
262.34329 -315.46365 145.30258
-232.79375 -305.29987 144.86667
-228.21268 -303.81744 144.52533
-195.02959 -305.51593 145.45555
-188.33685 -306.00049 145.61238
91.967033 -304.11905 145.29437
215.98622 -305.27957 144.36574
222.98532 -304.65552 144.55898
256.7738 -304.2645 145.28227
262.12292 -306.7265 145.94066
-232.17984 -297.78256 145.48517
-225.39001 -295.21475 145.16496
-218.30794 -291.05093 144.8163
-204.14227 -294.58472 144.71164
-196.69952 -296.03192 145.1013
-189.88274 -299.92236 148.30368
88.989563 -294.05331 144.45148
216.64749 -295.10413 144.87227
222.86371 -295.59973 145.08734
256.80103 -295.103 145.48088
261.41193 -294.35883 144.75948
-223.12747 -288.54776 145.85469
-215.82455 -286.75116 144.8484
-208.08582 -287.15369 146.44583
86.912422 -286.50403 144.78645
217.37419 -286.27524 145.43687
223.59888 -284.78287 143.65178
249.49539 -281.96796 144.15625
255.11221 -284.71661 145.20659
261.55685 -286.95837 143.93228
-142.70036 -272.035 148.10902
-134.76147 -271.90668 147.9265
-125.42528 -272.44128 148.40846
-114.44267 -270.74777 149.22522
-106.47224 -271.02478 149.31186
83.796715 -275.18008 145.28891
226.42488 -277.75528 145.28682
235.53049 -273.43719 144.18129
245.82126 -274.98349 144.77866
253.27684 -277.01129 145.68211
-142.55666 -265.96249 145.51817
-135.04791 -266.25916 146.37383
-125.42027 -264.8013 147.78575
-115.17577 -265.21634 148.11348
-105.00235 -264.71524 148.45821
-94.185814 -263.50595 148.29343
-85.970589 -262.77658 148.61845
-75.600807 -262.34091 148.44688
-65.088272 -260.4902 148.60774
-59.171967 -260.86627 149.22647
80.681 -263.85614 145.79135
155.79672 -260.33109 148.74905
166.95409 -260.88092 149.21246
235.78032 -266.26514 146.96442
243.12013 -268.36438 146.17763
-134.85587 -257.94272 148.09071
-124.20063 -255.58943 148.28128
-114.50713 -255.89008 147.97089
-105.91759 -253.86446 147.8454
-95.039459 -254.00591 147.95854
-85.611259 -255.19061 147.68898
-74.283585 -254.67984 147.92538
-65.617867 -254.67181 147.77235
-55.077396 -254.27496 148.22195
-44.759491 -252.89922 148.45512
-35.103073 -251.63461 147.94696
-24.477814 -250.96237 147.96799
-16.324293 -250.95312 149.29311
68.667603 -250.00345 149.96298
77.508087 -253.17996 147.83755
84.294449 -250.80132 148.02301
95.625809 -250.92471 148.29332
105.78178 -251.57108 148.17299
114.67845 -252.23993 147.89035
124.51255 -252.6364 147.98073
135.20218 -253.88 148.29233
144.1588 -254.6886 148.21065
155.37434 -254.50363 147.57637
164.05534 -253.92809 146.07304
170.49661 -255.47449 148.0667
226.38005 -253.29053 149.52176
235.9462 -254.33646 147.50272
243.71202 -253.40576 147.61934
254.57333 -254.19556 148.96451
-214.37874 -241.02457 146.63922
-175.28078 -241.28238 145.2614
-164.99527 -241.18356 145.92552
-154.13509 -241.20601 145.2964
-144.93805 -241.18372 145.03537
-135.87941 -241.13614 146.24551
-125.88084 -241.15897 144.76019
-113.18194 -247.8204 148.18979
-105.3089 -244.96938 147.84415
-95.341484 -243.69098 148.05199
-84.86132 -244.49586 147.61919
-75.229584 -243.53357 147.96254
-65.57135 -244.27536 148.10587
-56.158249 -245.42012 147.82944
-45.73106 -245.39745 147.16573
-34.912071 -244.53908 147.95557
-25.067556 -244.65164 147.80885
-14.781997 -244.27759 147.81929
-4.9058318 -243.05472 147.80505
4.467515 -243.31644 147.7533
15.162106 -240.94945 148.15735
25.005964 -242.11975 148.8929
34.510662 -242.62767 147.91493
45.787605 -242.40472 148.15228
55.034657 -244.13188 147.83615
64.863777 -244.80905 147.91756
75.659264 -245.22797 146.97881
84.399933 -245.26387 147.9171
94.035179 -244.43082 147.7281
103.86961 -244.55473 147.88689
115.34674 -244.25723 147.66917
124.87356 -245.54041 146.88469
134.32837 -244.32291 147.62561
144.94772 -244.68355 147.7663
154.48363 -244.84381 147.24219
163.85869 -247.96265 146.27522
218.33401 -241.35678 147.20532
224.34052 -245.46219 147.28365
235.08527 -245.08971 146.39836
244.09871 -243.85492 147.02066
253.46629 -244.31898 147.44131
260.91431 -242.92375 149.10728
-232.13828 -232.11398 148.95255
-223.95697 -232.83987 147.97527
-214.58069 -233.54724 145.7122
-204.5634 -232.80693 145.70065
-194.57153 -232.29646 144.52707
-183.52945 -233.85826 143.30614
-175.20459 -236.28014 145.14531
-166.26765 -237.68945 145.28627
-155.64214 -237.48747 145.4677
-144.5293 -237.0894 144.84154
-135.37877 -237.11763 144.52751
-125.61738 -235.60927 145.00967
-119.00691 -234.07585 147.43018
-92.904503 -236.41615 147.6319
-84.275505 -234.47488 147.45865
-74.324089 -235.84271 147.32272
-63.766426 -232.7124 147.57268
-55.388439 -234.20544 147.76701
-45.027275 -235.14799 147.84303
-34.704685 -234.75899 147.94109
-25.362322 -234.26569 148.02647
-16.316601 -234.06506 147.79454
-5.2319355 -234.97981 147.47247
5.2650743 -235.51062 147.43033
14.619559 -235.08572 147.86574
25.136789 -235.6125 147.6331
34.15287 -234.28177 147.61536
45.713448 -234.55324 147.6248
54.731869 -234.58463 147.59976
64.428505 -235.00346 147.61047
74.542236 -234.63974 147.13736
84.660072 -233.71281 147.54744
94.431419 -234.1492 147.36829
104.26891 -235.39572 147.63379
114.77227 -233.53699 147.3399
124.5612 -234.75134 147.66841
133.57095 -234.94347 147.59114
142.15633 -237.16927 147.35027
216.88329 -231.4852 146.10336
225.97017 -234.39133 144.99602
235.42033 -235.44054 144.55339
244.40707 -234.87259 145.80504
254.48236 -234.33826 146.59514
261.42496 -236.05197 148.24451
-241.55438 -221.30733 142.60153
-234.35367 -223.9073 144.81665
-225.73906 -225.95569 144.94952
-215.95633 -225.81549 144.79292
-204.33897 -227.23207 145.43909
-195.15318 -225.87393 145.87408
-185.37263 -226.74901 145.58325
-177.79967 -226.35217 145.4348
-125.42486 -224.95044 144.84392
-118.22831 -227.24162 146.46394
-82.67038 -226.37509 149.76459
-74.634125 -227.74834 147.2562
-63.590744 -224.45865 147.6196
-54.687214 -225.46738 147.612
-44.921917 -224.00729 147.65866
-34.311699 -225.59663 147.44899
-23.865828 -224.09544 147.94278
-15.506058 -224.92271 148.11617
-5.1161604 -225.21669 147.58847
3.066736 -225.47476 147.36737
13.944889 -223.85504 147.6763
26.659239 -225.83484 147.63968
35.396881 -226.39774 147.2536
45.750278 -224.87567 147.51582
54.420818 -224.76657 147.17545
64.806938 -225.45561 146.71758
75.001495 -224.89388 147.42342
83.771469 -224.98064 147.55453
96.176315 -224.62212 147.62598
104.78286 -226.15524 147.74457
113.62744 -224.4765 148.06357
124.90259 -228.11656 148.05725
132.30809 -228.11687 148.49763
147.04068 -222.62677 143.04996
155.55931 -222.4455 144.9888
164.44576 -222.41949 144.78099
174.87108 -222.52774 144.70079
186.06227 -223.21359 144.63914
195.57559 -222.71436 144.70953
203.58655 -222.0457 144.6619
217.56802 -225.0224 146.09593
226.34927 -224.83159 145.68651
234.48207 -224.81563 143.96051
245.30792 -225.16649 145.23625
255.21895 -225.04805 145.84093
260.91235 -224.23204 144.92249
-241.94101 -214.28604 144.85201
-235.92119 -214.99507 145.57486
-225.60555 -215.52174 147.2637
-215.85474 -215.49713 147.65781
-205.33353 -215.78482 148.98926
-195.04662 -218.04202 149.60423
-185.55577 -217.53502 148.90091
-176.00256 -218.47025 149.41617
-126.17321 -215.22064 144.31232
-118.72813 -214.36597 143.97112
-63.533047 -217.21596 148.03535
-52.702744 -215.61343 147.48827
-44.666214 -215.20239 147.75351
-35.080765 -215.59825 147.8533
-24.328079 -214.73547 147.91586
-14.275703 -216.64407 148.32413
-4.9399977 -215.83957 147.95261
3.8945298 -217.7146 148.66522
14.778886 -216.13089 148.3074
25.120228 -215.82449 148.17821
35.868961 -216.43652 147.45103
45.066971 -215.68245 148.2393
55.757736 -214.86708 147.8685
65.38076 -215.51994 147.36813
73.769096 -214.15524 147.76509
84.147484 -216.46657 148.03593
95.161224 -216.15947 148.91592
103.44752 -218.84668 147.91772
114.41022 -218.60178 148.98848
147.73744 -214.29578 144.78044
152.44341 -214.93906 146.13171
204.69485 -213.97232 145.4133
215.19536 -214.46092 144.62672
224.5493 -215.31424 145.08609
234.31357 -214.07898 146.46758
244.644 -214.71552 145.14117
254.82941 -214.84846 144.61763
261.86359 -215.50366 143.09521
-241.9678 -205.39421 144.04623
-236.24399 -204.70062 145.42711
-225.25868 -204.23175 147.58768
-215.53548 -205.56953 148.33244
-205.87425 -207.82475 149.39929
-194.81439 -209.81682 146.2131
-130.33453 -207.07407 141.34871
-125.79373 -203.91367 145.17867
-119.02023 -202.39456 144.54855
-50.977638 -209.01279 148.27496
-40.904694 -206.60535 147.77028
-34.024216 -206.50636 147.81854
-26.430857 -205.42537 147.54459
-13.727125 -205.49068 148.39949
-2.7782068 -205.77245 148.05138
3.4908302 -206.96793 148.60881
14.499006 -202.96088 148.81528
23.088175 -205.85927 148.06526
36.16452 -204.19882 147.95776
45.451729 -206.82208 147.76859
54.293854 -205.0004 147.52991
63.670612 -205.03284 147.47647
72.469048 -205.05864 148.79471
81.757736 -208.74106 148.22638
146.69713 -206.90561 145.92694
154.06714 -203.33699 144.84579
205.17314 -208.50725 147.84586
216.2681 -205.8765 147.45126
224.32263 -206.8873 146.78946
234.93814 -205.19656 147.1254
245.35196 -206.14555 146.26305
255.54958 -205.65668 146.35075
264.44489 -204.411 144.4735
270.30167 -202.57112 141.66469
-241.90578 -195.82401 143.71228
-234.64372 -194.63884 144.94586
-226.02162 -193.29358 145.07037
-216.25487 -192.85072 144.69672
-202.29448 -191.96257 147.14169
-195.26308 -192.92595 147.562
-185.46864 -192.02914 147.56133
-177.87489 -190.20869 144.85718
-125.8283 -194.58301 144.5705
-118.88705 -196.21228 146.93863
-25.335682 -197.99469 147.41231
-14.73202 -195.56335 148.14084
-5.3969569 -195.4469 147.74113
5.5503216 -195.30954 147.9093
14.815356 -195.34897 148.40396
24.834318 -195.95012 148.19559
34.397369 -195.1696 147.75247
45.097729 -196.41562 148.18243
61.700134 -197.02783 147.2157
147.11198 -196.03087 146.5249
154.1712 -193.61032 144.98317
222.49409 -198.36314 143.50784
231.58134 -195.79309 147.47812
245.22847 -195.54092 148.198
255.27927 -196.59784 147.94966
265.6243 -195.25972 144.89427
270.30545 -195.07559 141.64961
-242.07791 -188.9547 141.11848
-237.69157 -188.9053 141.83728
-224.63187 -188.88826 145.05466
-214.33946 -186.91788 144.756
-205.4136 -186.6801 144.64201
-194.33749 -186.25299 144.20998
-184.10283 -185.90259 144.89539
-177.47676 -185.30531 144.5782
-124.83543 -184.83459 145.91602
-118.69613 -188.06436 142.58499
-106.24872 -180.18106 147.81145
-88.007072 -180.20517 148.01831
-43.956192 -183.62373 144.43826
-35.5359 -183.89383 143.85452
-26.443005 -184.00398 144.20439
-19.7589 -182.11385 147.85942
-0.041899681 -189.27869 149.00279
5.9065166 -184.6209 147.58374
15.565813 -187.09496 147.78917
22.983974 -188.65598 148.01247
47.080601 -183.41855 144.68042
55.837311 -184.89668 145.36043
64.080261 -184.19649 145.04175
71.986176 -181.92902 143.89627
147.33698 -182.78275 146.05562
154.28989 -185.36322 145.14844
228.03279 -187.4487 145.82253
234.65094 -182.04016 144.60231
245.33469 -185.0434 146.86989
254.95746 -183.05112 148.58208
265.01678 -184.91855 144.88066
270.28613 -183.84399 141.72684
-181.25005 -177.05844 145.79822
-175.99321 -174.52232 145.13644
-169.07327 -172.24738 141.98422
-123.85578 -176.14027 146.00311
-115.12869 -176.03613 145.65889
-104.54151 -175.41684 146.4277
-94.807434 -174.92296 145.5668
-85.773666 -172.09061 142.34468
-74.227066 -171.60551 141.89491
-50.00679 -170.44072 147.99968
-44.86187 -174.36879 145.74579
-33.938152 -174.7083 145.51215
-25.95364 -176.09915 143.08366
-18.088697 -175.82697 144.51387
10.84042 -179.32014 149.4256
45.91584 -175.86237 143.52324
54.848522 -174.27545 145.16379
63.295654 -175.01744 144.75076
71.227936 -174.28856 144.77002
145.94609 -174.36281 144.92191
152.66095 -176.27835 146.28001
205.03723 -173.26509 147.98172
215.16701 -173.08153 146.94559
224.35313 -172.15303 147.32159
235.19737 -174.43703 146.65628
244.54991 -174.42647 145.55905
255.22124 -174.59866 144.91321
264.43457 -176.42546 143.99338
-174.85954 -164.7139 144.94379
-169.1618 -164.64368 143.43417
-92.125175 -166.88467 145.67932
-85.331993 -166.41344 146.19234
-75.403488 -166.09778 145.77425
-66.687202 -164.16982 143.72447
-44.842541 -165.33595 144.91443
-33.768047 -165.49786 144.31042
-24.347496 -165.58313 144.84201
39.858688 -169.11813 140.28195
45.529064 -166.28497 144.44548
55.259697 -164.61287 143.93829
63.859051 -166.1767 144.4446
71.596939 -165.28696 147.52367
117.74331 -162.23705 145.07768
124.94287 -162.21126 146.56665
133.45375 -162.68497 145.10544
145.05246 -164.46812 145.68495
152.39581 -166.47868 142.50337
198.21196 -160.91397 149.30426
203.91666 -165.95833 144.7195
214.96591 -167.25346 143.49316
225.24077 -166.15489 142.83965
235.77 -165.8811 144.4525
244.79619 -164.79845 142.95824
254.76768 -164.53703 142.23436
260.61234 -162.32695 140.85051
-175.28511 -155.33 144.86879
-169.15695 -157.33327 143.88989
-66.218338 -155.67795 145.72757
-58.152691 -154.51984 143.33769
48.90004 -150.61682 146.94736
50.97718 -158.16611 146.6124
88.492905 -151.65034 141.70746
95.059944 -152.9487 144.5056
105.2263 -152.6535 144.30724
114.98275 -155.47577 146.0891
125.23505 -158.66705 145.98482
135.15276 -158.87234 146.05614
145.5016 -158.20897 145.88129
153.51666 -158.77631 145.90486
197.17725 -155.09669 145.10101
202.62244 -156.0139 145.32954
217.75072 -155.13866 142.40207
225.23039 -155.23007 142.82915
235.33022 -154.92957 145.61726
244.54568 -155.27359 144.56332
254.17226 -154.42877 143.39212
261.03152 -152.76425 142.2757
-174.53125 -146.04294 144.70248
-169.14868 -146.32059 144.57794
-64.701973 -144.79094 145.35429
-58.176617 -143.55539 143.37534
46.822899 -143.06754 147.28232
86.969734 -145.08716 143.34868
94.911285 -146.53984 147.03828
105.17709 -147.31714 146.73425
112.75119 -146.1832 146.99055
197.74193 -145.78906 145.45938
201.54547 -144.65439 143.86063
216.98395 -144.89445 142.71985
225.27368 -145.3083 144.00319
235.03293 -144.86662 145.8466
245.28458 -144.47197 145.07658
255.43335 -144.66226 144.11542
261.1907 -145.49979 142.03546
-216.74545 -130.77884 144.96671
-175.11266 -136.44746 144.38118
-169.3912 -135.25714 146.451
-64.683548 -134.17502 146.01244
-58.209759 -132.73062 143.42731
44.74575 -135.51825 147.61729
87.090424 -134.89168 144.75684
92.758064 -133.65045 145.362
100.04241 -139.1604 149.93561
197.50801 -135.10887 145.53384
201.36621 -134.84058 143.56441
217.12509 -134.81781 143.65405
225.28575 -135.13376 144.67363
233.7234 -135.11646 145.68253
244.96107 -135.09923 145.0096
255.06938 -135.22072 144.52948
260.841 -135.21771 143.7935
-223.7011 -122.36957 145.37831
-216.84346 -125.41376 145.10069
-208.01241 -123.49576 145.4603
-196.77487 -122.69021 140.73697
-176.21234 -125.548 144.51317
-167.8851 -124.66061 148.67117
-103.95965 -121.92417 147.91899
-93.117981 -123.83559 146.76053
-85.236931 -123.67499 145.46867
-74.563934 -124.50102 144.83025
-64.908432 -125.58462 144.90524
39.343746 -120.41968 140.55017
41.560326 -125.45254 145.48491
87.055626 -125.52347 144.48204
93.691467 -123.6234 146.04071
104.2528 -120.0481 149.65781
198.29437 -125.81509 145.06055
201.29012 -124.14945 145.21074
217.18912 -124.65782 145.85014
225.06599 -125.25103 146.00826
233.97659 -125.04219 145.40373
245.45253 -125.2925 144.97067
255.08629 -125.29639 145.10938
261.17398 -124.03489 144.57307
-232.55276 -113.08652 144.85522
-226.34746 -115.67412 145.01424
-219.86887 -117.79019 144.26088
-202.51157 -116.96732 144.23775
-196.61601 -114.09294 145.00211
-173.44409 -115.25373 144.9128
-164.80157 -114.63206 145.47485
-155.7007 -114.68505 144.51933
-144.75336 -114.58411 144.81812
-135.3161 -114.27589 145.07161
-125.16117 -115.21322 145.34518
-114.87297 -115.39977 145.6337
-104.36456 -115.26889 144.96498
-95.295425 -116.12547 145.16121
-86.210228 -116.5025 146.23453
-73.162338 -119.50681 142.51793
-65.69986 -119.27267 144.94095
37.890465 -112.87038 144.75366
87.329269 -115.02209 144.30446
94.386055 -113.27061 145.84303
105.44502 -112.54601 146.61264
114.02926 -111.50484 145.87988
197.90302 -114.63049 145.41296
202.49365 -115.2927 145.56674
217.43088 -115.19286 146.77451
225.55632 -115.2224 146.41943
233.43756 -113.22231 144.87953
244.95372 -114.86198 144.26524
255.60785 -115.39798 145.15782
261.65295 -114.67993 145.174
-233.39476 -105.07168 145.15341
-228.36713 -104.81149 144.84572
-195.56015 -105.31853 144.72612
-188.88087 -105.80635 143.56979
-134.8306 -101.8029 148.43974
35.813324 -105.32109 145.08862
88.918976 -108.40475 142.58214
95.388748 -106.48303 144.1983
104.75196 -106.91856 144.45143
114.39425 -104.54914 144.10388
124.19466 -100.49641 144.95839
134.16135 -101.5111 145.6124
144.85745 -102.12669 146.04535
155.39011 -100.42247 144.01923
165.02536 -100.42508 145.61946
175.21097 -100.39102 143.71021
184.62146 -100.49192 145.84457
195.93221 -102.36808 144.8499
202.60223 -106.49385 145.31726
217.56982 -105.44464 148.31487
225.78212 -104.76178 145.83334
234.04161 -106.46997 143.87833
246.46298 -105.50339 143.48473
254.15128 -104.31989 145.10181
261.04733 -104.78456 145.72298
-232.95822 -94.181313 145.2455
-227.74992 -96.030106 145.8914
-195.99982 -95.573448 145.09851
-188.13884 -94.766533 143.29285
-143.7646 -95.098816 147.97157
-136.09723 -94.284691 146.0723
-125.936 -94.376373 147.40402
-117.29382 -94.771126 147.60025
-107.01 -93.647278 147.20853
-94.540817 -93.854507 147.76556
-84.143661 -90.879601 148.51831
32.697609 -93.997154 145.59109
116.4996 -97.837036 143.82703
124.99713 -97.948677 145.24373
133.94391 -96.974297 144.57382
145.19278 -96.881371 144.38843
155.62592 -96.895775 142.98225
164.93674 -96.821671 144.66399
175.75974 -97.677979 145.32173
185.2155 -97.326385 144.26982
194.03691 -97.781456 145.10999
202.18217 -97.308685 144.41354
216.49513 -94.917992 146.66907
224.47244 -96.523575 144.15715
249.32355 -99.751282 141.52695
256.40594 -94.721886 145.6179
261.63684 -93.652878 145.13892
-234.68553 -84.649788 145.14703
-228.84756 -88.327484 144.87393
-194.01797 -85.513039 143.72705
-187.29086 -86.582733 142.53247
-143.30215 -87.96582 147.9906
-134.10886 -85.778412 148.25604
-126.26097 -83.432922 147.81998
-116.6802 -85.319893 147.79341
-105.21935 -85.058273 148.1422
-94.37429 -84.811432 147.91748
-84.88533 -82.738373 147.6297
-72.544922 -85.29689 147.21822
-65.529305 -83.838165 147.28856
-54.409046 -82.899551 147.50967
-42.947983 -83.537636 148.46114
-34.197945 -82.318649 146.66345
-25.992336 -80.162537 146.0408
28.958036 -82.673225 142.22501
30.205759 -82.673225 149.96207
102.2351 -81.03495 147.53903
115.08469 -81.424156 148.21393
125.87596 -82.316673 147.5094
133.64001 -80.368416 147.64011
156.76479 -85.355186 148.04431
164.61606 -80.605957 143.60876
171.7514 -82.728226 147.51447
216.40752 -85.075272 144.96895
223.62073 -85.581497 146.89041
257.02365 -84.797516 145.62666
261.40457 -84.187927 145.81433
-234.16556 -74.991768 145.09824
-227.24385 -71.808022 144.92325
-200.60551 -70.232224 146.35165
-194.53889 -73.502846 144.98917
-188.1216 -74.10537 145.36652
-130.33536 -79.394196 149.87468
-124.75043 -76.957153 149.25912
-114.65409 -75.329445 147.98807
-104.9857 -74.858109 147.86981
-94.043701 -74.754944 147.70789
-84.251305 -74.19413 147.99408
-75.095375 -75.603264 148.23318
-65.494675 -73.843292 147.93057
-55.192963 -71.548576 147.71349
-42.917816 -75.368324 147.28993
-35.673996 -75.758743 147.00735
-25.649511 -73.942207 147.48273
-15.066953 -74.078323 147.50735
-6.694675 -73.313744 147.55901
2.2829022 -70.924461 147.28362
15.7006 -70.836632 149.14478
26.390066 -72.413849 145.73627
37.156189 -72.339493 147.7937
44.999485 -71.107254 147.43452
54.029285 -72.977837 148.30884
64.366158 -74.322067 147.59181
74.577126 -75.495712 147.82254
83.455551 -74.305756 148.24434
94.202652 -75.567345 148.03372
105.69131 -74.197495 147.43333
115.07189 -74.739029 147.79649
124.7027 -78.881989 148.79941
135.32988 -75.653923 148.01199
147.22025 -77.458191 147.79506
154.87675 -76.327293 146.25102
166.01659 -75.618217 146.70224
171.17778 -76.026619 148.3488
215.39648 -74.331947 143.93517
223.25894 -73.685318 148.05222
257.1391 -75.550194 145.33604
262.13498 -74.045761 145.52612
-232.01736 -68.284515 144.85139
-224.77687 -66.590286 144.75797
-214.87207 -65.045212 145.15999
-205.17801 -65.677589 145.30971
-196.64476 -67.370567 144.34052
-189.45763 -69.624763 142.11041
-104.08759 -67.224388 148.99591
-94.503502 -65.995636 148.64752
-84.210152 -64.946999 148.64101
-74.228027 -64.450729 148.29692
-66.023033 -64.939392 148.04816
-55.193401 -64.980057 148.00163
-44.33709 -65.660645 147.4882
-35.276741 -65.692184 147.53494
-25.809748 -63.141106 147.17371
-14.71263 -65.066475 147.4075
-5.5352836 -64.12439 146.78665
5.1853061 -62.095306 147.1768
13.255987 -65.119949 146.7522
22.531294 -65.676804 145.82007
33.295334 -65.240341 147.63892
46.31575 -64.117073 147.46684
54.418621 -63.427734 147.98857
64.688904 -65.79541 147.57321
75.18515 -65.369461 147.12067
86.035721 -63.867901 147.52902
95.725204 -68.01416 147.67679
103.35413 -62.860111 147.60359
116.42432 -65.502747 147.23048
123.76872 -64.05761 148.9126
133.15201 -62.437737 147.19672
143.33148 -67.747253 148.31885
154.09142 -67.872826 148.48172
161.86261 -66.746078 148.92017
213.51535 -65.008675 144.51442
221.78003 -66.150734 146.3214
257.60269 -63.863609 144.92821
261.99261 -65.233696 144.98764
-90.608322 -59.613407 147.35526
-80.993423 -57.09127 148.82817
-75.096077 -56.290466 148.01192
-66.319702 -55.605099 148.17421
-56.077316 -55.40638 148.1752
-43.424141 -55.607075 148.00179
-34.980099 -54.642132 148.16167
-22.625471 -55.593933 148.73758
-16.350351 -55.21772 147.73592
-5.9022746 -55.880634 147.66907
3.9152834 -54.076908 147.87825
13.827052 -56.95821 148.02827
23.183569 -53.75835 147.30266
35.884991 -55.260967 147.50751
44.669765 -55.008545 147.51305
54.141357 -52.604046 148.24425
64.468109 -56.830509 147.57341
74.907631 -53.242092 147.71446
85.033798 -57.448837 148.70319
95.664604 -55.062653 148.27354
102.88592 -54.63966 148.69232
115.42445 -56.485405 147.80814
121.19034 -52.277687 147.56207
132.73351 -57.6544 148.51683
216.96767 -55.56488 143.9782
223.96552 -54.046906 144.96394
234.63741 -51.224136 145.02229
245.25273 -51.747719 145.2296
254.59294 -54.778767 145.38684
261.69827 -57.489067 143.85648
-64.837715 -46.55772 148.3681
-54.552872 -44.452248 148.24638
-45.91515 -45.582439 147.51395
-35.160522 -43.91407 148.12259
-24.035595 -44.957024 148.65225
-16.950941 -43.558418 148.04016
-4.2303753 -44.546864 148.11172
4.9532485 -46.456581 148.04318
16.503584 -45.324951 147.49718
23.575453 -44.701969 147.77176
35.576626 -44.058407 147.89941
44.132229 -42.972595 147.35977
52.647018 -42.04715 147.77945
63.213928 -46.245247 147.17761
73.783989 -44.403587 146.89958
85.13604 -44.473457 148.57391
92.578934 -45.383377 147.29391
103.02938 -45.466167 148.53412
111.80458 -48.388107 148.62639
226.10457 -48.596958 144.41719
235.30724 -48.262165 144.99258
243.85376 -48.528679 145.13181
252.05655 -48.751392 143.38924
-50.890015 -36.62619 149.06439
-45.941883 -37.583515 148.84842
-33.969654 -36.182587 148.17471
-26.701153 -34.719212 147.64848
-16.697332 -34.567192 148.05553
-4.0763907 -34.286457 147.79216
3.9921982 -33.512287 147.72978
16.864042 -37.555695 146.57089
25.424986 -34.369434 148.02815
34.35574 -35.937759 146.89095
42.794731 -33.712048 147.66374
54.711525 -36.365604 147.74036
63.768902 -34.579006 147.66245
75.802414 -36.966705 148.19667
95.863068 -38.5718 149.92758
-32.307419 -29.712303 147.60309
-26.404882 -28.696964 148.5809
-16.445293 -25.424479 148.08311
-3.8264856 -23.576675 148.1451
4.7621336 -26.18989 148.0596
15.155639 -26.03451 147.04224
24.726433 -24.531548 148.19838
34.85902 -26.804367 147.95389
44.220608 -25.8403 147.90038
56.02261 -27.641748 148.93336
67.786179 -28.56933 147.86478
-172.17342 -12.640648 144.99373
-166.05615 -13.337566 145.401
-154.62189 -13.385204 144.8887
-147.21834 -12.184514 145.12291
-13.597551 -17.248474 149.57832
-5.9101586 -15.703031 148.51871
4.8614697 -15.681344 148.03064
17.036716 -15.658676 147.19801
23.822052 -16.876968 147.8434
42.142441 -17.833153 149.01584
167.29604 -12.5589 145.43753
175.40865 -13.049191 145.3709
185.71834 -13.229899 144.84331
192.96191 -12.491779 146.10738
-172.81482 -6.2587957 145.61156
-166.23296 -4.7237844 145.10202
-154.43434 -5.0300202 145.20491
-147.11383 -5.3639369 145.1924
6.3600788 -8.5677109 146.94777
16.650387 -8.9488602 149.0399
167.60663 -4.8634715 143.88933
174.50885 -4.2783413 145.66774
185.94435 -4.7517424 145.31444
192.46078 -5.1352406 144.53775
-172.54704 3.9281147 144.95238
-165.58235 5.4391665 145.28691
-155.20818 5.7141418 144.44298
-147.6183 4.7778754 144.68303
5.0709057 4.1435928 146.07715
167.10664 5.882093 144.72652
175.62816 5.6476569 144.22258
185.13708 5.6059093 144.95663
193.0144 4.6590891 145.19632
-169.12355 10.340485 146.17361
-156.88254 10.294579 147.86356
-148.36765 10.344421 144.10751
1.9551935 15.467522 146.57959
169.06454 10.287029 144.97752
177.7359 10.344444 144.00493
185.49738 10.320407 145.70825
-0.1219492 23.016815 146.91455
-2.19909 30.566101 147.24953
-172.19826 157.35747 146.17024
-166.38863 156.52037 145.3544
-155.34808 156.08589 145.14835
-147.33669 157.06972 144.44676
167.15247 157.53903 145.42839
174.62115 156.07387 145.42126
185.28737 156.45573 145.79004
192.7785 156.86037 144.40623
-173.0061 164.56236 145.41576
-166.28732 165.60178 145.00783
-154.70471 165.28625 144.89166
-147.38669 164.45441 145.98526
166.87511 164.46594 145.28308
174.62593 164.99467 144.6176
186.21968 165.74661 145.0703
192.92151 164.04425 145.94963
-172.34618 173.93271 145.26144
-165.48402 175.48102 145.26404
-154.51492 175.34709 144.84441
-147.93564 175.65549 144.5683
167.34508 173.99301 144.52475
174.71202 176.03352 144.55948
185.89487 175.28185 145.16879
192.98476 174.64896 145.47801
-170.24715 180.30374 149.94937
-165.489 180.29709 144.32108
-153.52704 180.31119 145.00452
-146.0645 180.04883 146.74625
175.048 180.31465 144.61209
186.50691 180.31232 144.84985
126.79639 -422.3912 154.23108
124.71925 -414.84192 154.56606
122.64211 -407.2926 154.90102
118.97226 -394.71045 154.1698
121.1888 -399.74335 159.10451
116.41069 -384.64478 155.90591
113.70971 -377.09546 152.37238
109.55542 -361.99689 153.0423
111.63256 -369.54617 152.70734
-222.16194 -350.52545 151.0497
-214.72836 -350.53345 151.77905
-206.62117 -350.3324 152.6409
107.47828 -354.4476 153.37727
-232.95274 -342.37024 154.72395
-224.70801 -344.44437 155.27263
-214.66547 -346.29947 155.02637
-204.4787 -345.48019 154.97386
-196.13268 -343.26883 155.20442
-188.75922 -342.18317 154.22693
-234.32951 -335.35989 155.39526
-228.0134 -339.21753 156.72011
-193.60916 -335.93503 155.39491
-187.52824 -334.85248 155.30876
226.08482 -331.76401 154.86455
234.55797 -332.47342 154.91824
244.6424 -332.28986 154.04025
251.5437 -331.54471 153.34126
-234.53865 -324.96289 155.09601
-229.23503 -323.48615 150.52151
-193.51695 -325.2301 154.80101
-187.36475 -325.88126 156.14589
216.58255 -324.12762 155.05246
224.23065 -326.2551 154.98196
234.41295 -328.92078 154.73459
245.96173 -328.34851 155.05197
255.0303 -325.36884 154.8063
262.27826 -323.09744 154.65631
-232.80579 -315.35388 155.07526
-228.31136 -315.1366 154.49356
-194.99905 -314.61429 155.26746
-188.34238 -314.40637 155.22139
97.092567 -316.70117 155.05212
214.41196 -315.16962 155.05472
220.89406 -316.03369 153.47226
258.37454 -315.26318 155.36731
262.53055 -314.76788 154.88257
-233.11952 -305.13098 155.39357
-228.44069 -303.78757 154.57516
-194.10716 -305.13232 155.33067
-188.28958 -305.20041 154.83914
93.976852 -305.37726 155.55457
215.99216 -304.72174 154.71095
223.03116 -302.80612 154.63251
256.91101 -303.88361 155.28336
261.95517 -305.22556 155.29044
-232.51033 -297.23026 155.17435
-225.84959 -294.26309 155.40884
-219.55963 -290.91724 154.11826
-202.62871 -293.96677 154.56537
-195.77878 -296.45358 155.62759
-189.66917 -299.26364 156.19565
90.861145 -294.05331 156.05701
216.71646 -295.14105 154.50444
222.98334 -295.48389 155.17743
256.66049 -294.72955 155.48763
261.61087 -294.64926 154.45799
-222.53519 -287.82718 155.38434
-215.01706 -284.57391 154.84958
-206.27884 -287.62711 155.07198
-158.99774 -280.27493 157.08421
-145.03427 -280.27786 157.08147
-130.99245 -280.27841 157.07999
88.784004 -286.504 156.39198
216.68619 -286.11792 154.94576
223.83524 -284.50192 154.39627
249.46341 -280.50473 154.24564
255.74785 -284.43277 155.25259
261.31076 -286.90604 155.8914
-215.14249 -279.74252 157.72798
-170.18185 -271.2749 157.67181
-163.93987 -273.92502 156.81586
-155.28572 -273.77777 157.51936
-144.63599 -274.49252 155.81038
-134.62311 -274.48294 154.95438
-125.02296 -273.22101 155.34828
-115.2405 -271.96182 154.91646
-104.89935 -270.62164 154.63953
-98.399353 -270.43744 154.17825
85.668289 -275.18005 156.89444
219.11319 -277.65918 156.41083
225.00562 -275.53784 155.61641
233.58311 -273.89084 154.84781
245.88824 -273.69971 155.07855
252.97934 -276.32309 155.6772
-170.66641 -265.55487 157.88977
-163.43582 -266.13651 156.80573
-154.30309 -264.38019 157.42761
-145.43883 -265.36359 156.14305
-134.03609 -265.93777 154.97833
-124.27468 -265.4361 155.10202
-114.59711 -265.72131 155.36052
-105.11638 -265.41531 155.28194
-95.123627 -264.41138 155.64537
-85.149254 -263.11185 155.11986
-75.629326 -262.30457 155.26456
-65.382042 -261.39804 155.20653
-58.6604 -261.2674 154.04123
82.552582 -263.85614 157.39688
137.8038 -260.02435 157.14343
144.90892 -260.62457 155.3385
154.78056 -261.08267 155.64781
164.25423 -261.87485 156.29178
175.67529 -261.99362 156.62622
185.75253 -261.83423 155.9278
194.1665 -261.698 156.38754
217.51981 -262.94394 157.72887
225.87701 -265.19867 156.63472
235.30006 -264.7843 154.59129
243.47624 -265.17532 155.94402
253.47133 -263.76514 157.30457
261.15866 -262.77203 158.12924
-211.37604 -250.36098 156.50412
-171.00311 -256.89667 158.20665
-163.79733 -254.67661 156.99173
-155.00557 -255.12476 157.43126
-145.26387 -254.78664 156.08345
-136.1705 -255.38448 156.5331
-124.31306 -254.66811 156.12738
-114.39631 -254.68976 155.89017
-104.82883 -254.82114 155.36151
-95.411667 -255.3063 155.43571
-85.277374 -255.03703 155.86525
-74.9011 -256.00137 154.93976
-64.834206 -255.65735 155.40999
-54.319798 -254.90814 155.15479
-44.953476 -253.70804 155.46625
-35.799976 -252.77284 155.41415
-25.56377 -251.5759 155.29369
-16.214592 -250.50858 155.08943
58.935417 -250.34277 154.34454
64.963226 -250.71729 156.22792
75.142082 -251.24876 155.71349
85.460236 -252.10866 155.86623
95.71685 -252.6553 155.25473
105.06627 -252.5201 155.08553
115.28654 -253.09364 155.3833
124.76388 -253.70018 155.20306
135.26039 -254.90741 155.13286
144.87296 -255.06801 155.43103
154.42422 -256.37469 155.34158
164.62778 -256.08249 154.6718
173.81149 -255.86427 156.35005
185.41154 -256.02518 157.11264
192.66057 -256.23169 157.58907
217.19902 -255.34793 156.85144
225.49355 -255.02274 155.27271
234.26515 -255.33473 153.75378
244.2666 -254.96555 155.87762
255.17149 -253.9454 156.52916
260.85562 -254.61003 157.16031
-231.45334 -241.53674 159.14392
-224.77716 -242.52771 157.94739
-215.26576 -243.68291 156.55251
-206.02115 -243.5535 156.4617
-196.27034 -242.20418 157.40802
-173.38072 -242.41916 153.7202
-165.1958 -243.6407 156.33545
-154.43005 -244.55734 156.0791
-145.85532 -243.81334 156.03249
-134.59833 -242.53976 157.27892
-124.89416 -245.47603 155.19424
-114.18964 -245.62915 156.40395
-104.80825 -245.33389 155.12186
-95.542946 -245.36015 155.77225
-86.066887 -245.37216 155.45195
-74.973663 -244.72131 155.27943
-64.018349 -245.60768 155.3755
-54.449802 -244.85442 155.01317
-44.607502 -245.68073 155.69664
-35.280636 -245.99176 155.50806
-24.538643 -245.60936 155.59122
-14.784616 -245.00778 155.46004
-5.0104899 -243.75882 155.54367
4.6423321 -243.03098 155.32632
15.171833 -242.27293 155.26419
24.730448 -242.40407 155.50238
34.440121 -243.43091 155.33997
44.992119 -244.36655 154.91483
54.954239 -244.73996 155.03725
65.323822 -245.44598 155.40459
75.082695 -245.53949 155.24434
84.906212 -245.62227 155.46382
95.322281 -245.61528 155.31158
104.8182 -246.02341 155.30186
114.75267 -244.74261 155.19453
124.86431 -244.90343 154.89186
135.082 -245.43745 155.09491
144.82254 -245.09424 155.45857
154.28139 -245.27528 153.93294
164.62231 -246.50443 153.48183
174.34927 -247.12946 154.955
186.07826 -244.49612 157.36754
193.9391 -244.97183 157.67584
217.51353 -245.40836 155.80745
225.7805 -245.00902 156.1436
234.26062 -244.82414 154.21735
245.06822 -244.4736 155.18661
255.35086 -245.27396 155.79535
261.5769 -245.54604 155.78052
-232.19391 -234.74539 155.86415
-225.05379 -235.10233 155.11038
-215.2513 -236.02933 154.01581
-204.31454 -235.51555 155.20578
-196.03444 -234.92587 155.13876
-182.61436 -235.28125 155.10649
-175.66702 -235.48405 154.85538
-164.96124 -237.19609 155.58939
-154.65747 -237.52696 153.80025
-144.75427 -237.08922 154.75961
-134.74246 -237.35252 154.44608
-125.41956 -235.37392 154.06642
-116.13172 -235.26799 156.2861
-104.69572 -237.42606 156.41116
-95.094063 -235.07675 156.16951
-85.083992 -235.33614 156.13646
-74.776031 -234.86252 154.79611
-64.120399 -236.59473 154.5995
-55.024261 -234.76454 155.22157
-44.416702 -235.02696 154.82755
-35.076561 -234.94714 155.11043
-24.795374 -234.53098 154.59886
-14.364535 -235.46281 153.8894
-4.8035669 -235.02576 154.91016
5.3754554 -235.96843 155.04211
14.552545 -236.17532 154.92589
24.973757 -235.38998 154.57439
35.22139 -235.31218 155.28709
45.748081 -235.64796 154.743
55.815842 -235.38345 155.09784
64.761383 -235.99135 154.5098
74.605087 -235.3311 154.33766
85.112 -235.57626 154.88957
95.141319 -235.25156 154.61063
104.79219 -235.82838 154.90901
115.70174 -234.81772 154.99402
125.46722 -235.0504 155.08984
135.08963 -235.09064 155.09256
144.58029 -235.87636 154.71593
153.58234 -235.47072 156.26036
166.39755 -233.84923 157.08052
176.04794 -233.84189 156.27478
186.28621 -234.26096 156.47202
194.58133 -235.76392 157.91733
217.644 -236.34543 154.43333
225.38524 -235.06984 154.50748
235.06516 -234.19389 156.53981
244.68861 -234.99573 155.47774
254.85066 -235.49596 154.10831
260.50674 -235.13084 153.45137
-232.72258 -226.83929 153.54361
-225.38416 -226.13799 154.06949
-215.95198 -224.60588 154.74998
-205.47098 -225.97365 154.37532
-196.76926 -225.47025 153.64551
-182.67274 -224.63922 154.2724
-176.84595 -224.91855 156.07048
-141.49203 -224.68909 158.63364
-125.37382 -225.42 156.55515
-118.55201 -224.05995 156.23129
-94.459663 -228.20386 157.25342
-84.492935 -226.26129 156.19167
-75.743973 -225.46364 155.50565
-65.398216 -225.67429 155.7655
-55.448177 -225.23152 155.64285
-45.065006 -225.51752 154.84314
-34.700207 -225.39392 154.54163
-25.252934 -225.21567 155.31384
-14.762045 -225.35228 154.75885
-4.5023236 -225.43359 155.53537
4.0478034 -225.78726 153.44739
14.703589 -225.94298 154.39149
24.800217 -225.90207 154.89458
34.803608 -225.29153 155.61287
45.506786 -224.87041 154.6754
54.571739 -225.03566 154.33601
64.569725 -225.24753 155.37019
74.65625 -225.1358 155.07111
85.066383 -225.47893 155.63132
94.890923 -225.60059 154.9328
106.30997 -225.87959 154.85558
115.3918 -225.2641 155.42261
124.84747 -226.90648 155.42296
134.90753 -228.06523 158.41718
148.34868 -224.05806 157.63493
155.03188 -223.60936 155.43625
164.6685 -223.10915 154.11606
175.35069 -223.05551 154.16524
184.77019 -224.39673 154.76361
195.96783 -222.89978 155.21237
204.28731 -222.12459 153.99126
217.78018 -226.98477 151.76633
224.58215 -227.14719 152.14182
235.32761 -224.61589 154.10583
244.60698 -225.50374 153.86827
254.23344 -225.51648 152.58519
260.83957 -228.53062 152.33423
-240.20871 -214.22812 151.8327
-233.94142 -215.05769 152.0797
-224.76823 -214.28995 152.85722
-214.65427 -215.67636 153.94873
-204.61661 -213.97136 153.76918
-194.70166 -213.60579 153.79167
-185.00272 -214.31868 153.23688
-177.68109 -215.68118 156.39391
-125.06566 -215.52864 155.97511
-118.37711 -214.22472 157.12207
-72.149017 -218.09421 155.55179
-64.517006 -216.27963 155.30539
-55.178314 -215.58051 155.69563
-45.436649 -214.81357 155.41202
-36.24559 -215.36775 155.8255
-24.00473 -214.31735 155.6046
-14.870955 -213.34427 155.43671
-5.0665798 -215.90269 154.26633
5.1275334 -215.96181 154.73071
14.320835 -216.42534 154.8927
24.611851 -215.84335 154.49603
35.298058 -214.75749 154.74417
45.22765 -214.3334 154.38058
54.375183 -214.3051 154.38708
65.879433 -215.04309 155.33342
75.667519 -215.94118 155.56766
85.57457 -214.78482 154.54562
94.583412 -215.87038 155.50557
104.39774 -217.5345 155.21045
111.93983 -218.03398 156.94005
123.34819 -219.99191 152.23734
146.51448 -215.00877 153.47144
151.92522 -215.00305 155.58139
167.77869 -218.9845 154.67522
196.0424 -216.76303 156.24808
203.80276 -214.05553 154.88457
217.69101 -212.19846 151.34486
225.86217 -212.439 151.52693
235.67171 -215.62718 152.63435
243.76279 -216.3098 151.94249
254.30908 -218.46579 151.62628
-240.5556 -204.92215 152.39279
-235.44771 -204.62102 152.37105
-224.71492 -204.30501 152.67848
-214.89293 -205.09589 154.01404
-205.168 -204.76106 154.76077
-195.12021 -204.93542 154.40549
-185.01088 -204.5479 153.93987
-176.57564 -206.00484 156.36351
-169.69992 -206.84114 158.68765
-124.52429 -205.60448 154.92479
-119.01141 -206.34508 155.6389
-54.069134 -208.0179 155.50346
-44.737797 -206.44273 155.13516
-34.950142 -205.62704 154.51527
-25.939674 -204.34865 154.79739
-16.648571 -203.56958 154.86813
-5.0370421 -203.72131 153.98285
5.7069588 -204.745 155.10986
15.8167 -205.08466 153.69974
26.173752 -205.1132 154.55434
35.686214 -205.83836 154.49054
44.953003 -205.21211 154.99881
55.992264 -204.37157 154.21538
66.233673 -205.37451 154.88037
76.243103 -205.8578 156.11981
84.908127 -207.41946 156.11749
91.382294 -208.15771 158.17744
146.6226 -206.1503 155.03223
152.0267 -205.41455 155.97314
194.66035 -206.60117 159.50766
204.25645 -204.81392 155.04469
215.03075 -205.33403 153.23616
224.5251 -205.10524 153.50194
235.30917 -204.36624 153.03485
244.26395 -204.13542 151.34592
254.77036 -202.16844 151.63791
263.1286 -202.21463 151.8093
-240.80887 -198.72906 151.18521
-233.15276 -195.12387 154.53043
-225.1337 -194.68457 154.6687
-215.88226 -196.32617 155.89386
-204.8997 -197.13097 155.5578
-195.88637 -195.06259 153.65718
-183.45041 -195.19476 153.98091
-176.90099 -195.06032 156.08316
-124.92249 -194.39354 155.29317
-118.80695 -195.65739 155.70287
-44.764542 -192.64999 158.91951
-34.847275 -192.72314 156.6324
-23.295559 -196.74808 156.31564
-15.612725 -194.98956 155.49409
-4.7264233 -194.28641 154.86757
4.072897 -195.71507 154.17615
17.42907 -194.58986 153.96016
26.315147 -195.17783 153.91891
35.875828 -194.16992 154.2961
45.482624 -194.44949 156.13687
54.984009 -197.40221 154.85773
63.209957 -196.88345 156.07697
146.11359 -195.11328 154.80513
152.55254 -194.9949 156.42368
195.86423 -194.8421 159.38519
205.23738 -195.81499 156.62248
215.73367 -195.54637 156.21922
225.28998 -194.81679 156.61765
234.90292 -196.26295 155.39412
244.61282 -194.89442 155.22287
254.99834 -194.4771 153.74644
263.63306 -193.64302 152.17117
-232.57523 -188.0666 156.74385
-225.24863 -187.11595 155.15909
-215.44153 -185.12114 154.82843
-204.54457 -186.32271 155.2608
-196.05057 -186.55652 156.73218
-180.6936 -184.57941 155.02563
-176.75148 -184.91277 156.54585
-125.57428 -184.92326 155.73755
-118.47643 -185.25476 155.07378
-44.085072 -184.25032 154.36752
-35.872887 -185.47841 153.61029
-26.375206 -184.40076 154.87273
-17.059149 -185.75565 154.83943
-4.3504658 -185.41357 154.57971
5.7344413 -184.45186 154.9238
15.781801 -183.13824 154.8452
25.095284 -184.62584 154.85333
35.31612 -185.97253 154.95111
45.725544 -184.28749 155.03922
56.794514 -184.46973 156.03122
65.447845 -184.20866 154.7572
70.447754 -184.29619 156.30814
145.89738 -184.39238 154.25974
152.17883 -186.22682 158.1243
195.97929 -186.12358 159.42761
204.99081 -185.22321 156.45795
214.71382 -184.60759 154.77753
224.93188 -184.03247 155.39906
236.09772 -184.52573 154.62254
244.44368 -184.01506 154.77893
255.55316 -185.4296 154.51085
263.56049 -185.68449 153.03113
-214.93196 -177.35406 159.33217
-207.66994 -179.99968 159.85207
-180.79379 -175.6944 155.09521
-175.47539 -174.41733 155.81894
-166.8974 -174.4863 158.88618
-132.20041 -174.32126 155.88622
-124.82231 -173.82585 154.63007
-114.78072 -172.67813 154.73372
-104.64806 -173.10599 153.82063
-96.175163 -172.89799 153.79942
-88.821526 -175.19275 150.77045
-45.77932 -174.85497 155.26234
-34.087944 -175.62708 154.54088
-25.634897 -175.99205 154.55193
-2.3989925 -179.37686 152.105
12.80437 -178.28212 153.93428
20.132015 -179.41779 154.84419
45.955513 -174.74278 156.33238
54.463779 -175.59744 153.96249
63.974957 -174.67119 156.32196
71.135765 -175.43448 152.91064
145.85696 -174.41678 155.10381
152.48354 -175.73289 158.29436
195.91595 -177.32507 159.5116
204.71478 -175.83458 154.59671
215.97762 -177.06262 153.32263
224.96333 -176.31114 153.54645
234.10648 -177.08022 153.99303
243.02773 -177.7825 153.20023
253.91197 -178.05069 151.38391
262.16379 -178.91699 151.00127
-174.18669 -164.86351 155.3299
-166.8974 -165.3049 158.88618
-130.27928 -166.80844 155.36494
-123.95197 -165.64638 156.2838
-115.3449 -166.81999 156.77603
-105.18224 -166.76143 155.72081
-94.869858 -165.5137 155.78586
-84.900215 -164.01962 155.16766
-75.723793 -163.64136 154.2018
-66.779312 -163.31956 154.73021
-45.147926 -165.96661 154.20448
-33.572392 -164.76765 155.32779
-24.82641 -165.5134 154.38885
39.900558 -168.10602 152.19788
46.15184 -165.27431 155.28906
54.883766 -164.45015 154.31863
64.379898 -166.07973 155.59756
71.922455 -169.84085 156.36075
116.73169 -161.5376 152.33728
124.78917 -161.47336 153.10765
133.47455 -162.16696 150.90036
145.83368 -165.95757 155.0007
153.12714 -164.83572 155.84227
196.5723 -164.73131 157.30113
203.64073 -165.84445 154.18024
217.03545 -169.9433 151.6391
-174.62479 -155.10945 155.56354
-167.26331 -154.11542 158.50067
-126.59334 -154.48538 159.07703
-94.27327 -156.3783 158.66066
-73.75769 -155.28061 155.31717
-66.814247 -155.16615 152.68336
-32.871788 -159.45251 158.53925
51.186275 -154.39148 154.51691
96.740189 -150.60196 151.90567
105.03815 -151.9142 151.2614
115.71451 -153.90752 154.92648
124.84667 -155.21317 154.64986
135.02977 -154.23666 155.17538
145.25407 -154.50697 154.86581
152.82053 -153.50728 156.3741
196.4446 -155.25725 155.09662
202.11049 -155.90799 154.01109
237.21082 -155.18457 150.67479
-174.43546 -145.33737 155.51355
-167.74966 -145.56961 157.24164
-136.63869 -144.6916 157.56554
-126.65678 -144.65717 159.12703
-93.959511 -144.94395 154.79877
-73.493713 -144.97176 156.3978
-67.140175 -144.96947 153.32373
-57.810677 -144.48795 150.14987
48.070564 -143.06754 155.01938
88.961861 -142.10133 153.0443
95.344582 -143.88513 153.88641
104.85593 -144.26598 154.78288
114.03463 -144.591 156.42819
124.20565 -146.08461 158.03709
134.18083 -146.00444 158.4894
145.22844 -145.20721 158.31099
151.98749 -144.09467 157.74557
197.00687 -145.897 155.05652
201.71634 -144.74313 154.23009
237.84619 -143.64201 151.45627
241.94336 -143.94888 151.08739
-220.11491 -131.54695 159.59013
-214.86375 -132.26625 156.79892
-208.37897 -131.02995 154.97202
-175.30832 -135.22278 154.76575
-167.95604 -133.728 156.76035
-126.66683 -134.04329 159.26215
-109.00838 -130.37701 158.35921
-97.65033 -131.77454 156.47858
-73.295357 -134.12482 154.75882
-65.739853 -135.09007 153.54999
45.993423 -135.51825 155.35434
88.116737 -134.95479 153.47092
95.096176 -135.12219 155.78575
104.87019 -135.24382 156.13721
114.22365 -134.84505 156.95154
123.6538 -135.06528 158.79903
134.75821 -134.95807 158.87865
143.44922 -134.32651 158.71727
197.93481 -134.74564 154.37103
201.20474 -134.52652 154.98357
237.36845 -134.16115 152.48425
243.28983 -132.86639 151.70576
252.17548 -130.85022 150.33151
-230.11394 -121.33948 158.88138
-223.6187 -123.87608 155.64207
-215.79814 -126.75864 153.95821
-204.79556 -123.69494 155.74417
-197.89581 -120.84149 154.04271
-175.25041 -124.99052 154.67964
-166.64107 -121.82358 156.19998
-130.42046 -122.99631 158.18713
-124.16064 -123.77106 156.37836
-115.21925 -123.34743 155.73213
-104.728 -123.04668 154.5031
-94.690598 -125.32077 154.93651
-85.117249 -127.19711 154.61087
-75.981575 -128.06195 154.48369
-66.997864 -126.98424 155.17099
42.877708 -124.19432 155.85678
88.308243 -126.21786 153.14386
95.29422 -125.78524 156.18916
104.86028 -124.45155 155.88821
114.30901 -124.77125 157.88908
124.92441 -125.18519 158.89772
135.35446 -124.89917 159.12045
144.04771 -124.94333 158.84521
152.81715 -128.42006 158.97894
197.70172 -123.82066 155.35811
202.1554 -124.79189 155.90315
224.8911 -123.24217 151.08582
236.32474 -124.30351 153.41556
243.98232 -124.50267 153.13731
252.6748 -124.17276 151.28491
-232.41116 -113.98882 155.77306
-227.42114 -116.00026 155.01486
-203.31177 -117.32827 152.97189
-197.49226 -113.87476 153.80768
-172.62265 -115.51477 156.34319
-165.73055 -114.37946 154.16649
-155.31996 -114.64541 154.52672
-145.11395 -115.11278 153.85927
-134.96953 -113.88447 154.53188
-124.47052 -116.06702 153.94211
-114.5202 -117.99254 153.82716
-105.49724 -118.20482 154.25638
-95.82653 -117.41835 153.99803
-87.874184 -119.79399 156.27632
39.761997 -112.87039 156.35924
87.698166 -118.42172 150.91699
94.872772 -116.54028 154.30899
104.67791 -115.76577 153.989
114.41234 -115.4715 156.34691
124.64366 -114.46888 157.98155
135.43585 -115.47553 159.02136
144.80705 -114.63445 158.57823
197.59612 -115.38991 156.51808
201.24226 -115.04971 155.82635
217.03264 -113.36131 150.86748
225.19945 -112.75743 154.51688
