# .PCD v0.7 - Point Cloud Data file format
VERSION 0.7
FIELDS x y z
SIZE 4 4 4
TYPE F F F
COUNT 1 1 1
WIDTH 1263
HEIGHT 1
VIEWPOINT 0 0 0 1 0 0 0
POINTS 1263
DATA ascii
-0.039588675 0.009160459 0.019309174
-0.012159543 0.0091604553 0.015880529
0.015269589 0.0091604516 0.012451891
0.042698704 0.009160459 0.0090232529
-0.029302759 0.009160459 0.0073089302
-0.0018736264 0.009160459 0.0038802922
0.025555504 0.0091604553 0.00045164675
-0.046445969 0.0091604516 -0.0012626722
-0.01901684 0.0091604665 -0.0046913102
0.014578157 0.038200349 -0.0066765063
-0.027818242 0.049160741 -0.007514663
0.03303143 0.049160741 -0.010280553
-0.0056910869 0.049160741 -0.0116635
-0.044413619 0.049160741 -0.013046447
0.016436066 0.049160741 -0.015812341
-0.022286465 0.049160741 -0.017195288
0.038563218 0.049160741 -0.019961189
-0.0001593065 0.049160741 -0.021344129
-0.038881827 0.049160741 -0.022727076
0.02196786 0.049160726 -0.02549297
-0.01675467 0.049160741 -0.026875924
0.044095006 0.049160741 -0.029641811
0.0053724833 0.049160741 -0.031024765
-0.033350036 0.049160741 -0.032407705
0.027499644 0.049160741 -0.035173606
-0.011222882 0.049160741 -0.036556553
0.044095006 0.049160741 -0.039322447
-0.0015422505 0.049160749 -0.040705387
0.037180267 0.049160741 -0.043471288
-0.01675467 0.049160741 -0.044854242
0.0053724833 0.049160741 -0.047620114
0.016436066 0.049160741 -0.05038603
0.016436066 0.049160741 -0.053151909
0.0053724833 0.049160741 -0.055917818
-0.01675467 0.049160741 -0.058683719
-0.0015422505 0.049160749 -0.062832564
-0.024053894 0.049116232 -0.056647275
-0.018199956 0.049115159 -0.049965974
0.0047801253 0.049113281 -0.057576317
0.0071641658 0.049111992 -0.052662406
-0.0017092217 0.049112692 -0.040984157
-0.018576385 0.049112417 -0.02455448
-0.039010447 0.049111657 -0.0061000958
0.017646823 0.049110085 -0.038269822
-0.0055219969 0.049109854 -0.018378351
-0.038430206 0.039036199 -0.0060637556
0.020041499 0.049108125 -0.02611893
-0.010708712 0.045834139 -0.0060922205
0.04072047 0.049106456 -0.031178277
0.0097339582 0.049105838 -0.0070569217
-0.034178056 0.022720709 -0.0060396679
0.032380622 0.049104303 -0.013849679
0.0021833272 0.035199136 -0.0060826428
-0.045095976 0.0091215968 -4.5787543e-05
0.024428615 0.041065209 -0.0061064437
-0.025159298 0.0091203749 -0.0037175529
0.037239306 0.04206682 -0.0061163493
-0.015078229 0.009119194 -0.0016262792
0.042632353 0.038692869 -0.0061140917
-0.012814505 0.0091173649 0.0049860068
0.039546229 0.029522691 -0.0060968883
-0.01939985 0.0091169626 0.016775835
0.026232742 0.012402132 -0.006060522
-0.032924756 0.0091145486 0.032575771
0.0083202943 0.0091146752 0.0095070824
0.048637044 0.01767157 -0.0060833655
-0.016585734 0.009112373 0.031994373
0.022213409 0.0091131441 0.010326277
-0.039256562 0.0091107935 0.05285646
0.00037784534 0.0091128312 0.03059436
0.03956056 0.0091104098 0.0085828491
-0.014004564 0.0090835951 0.046008147
0.02729371 0.0091095269 0.022635262
-0.021264553 0.0091085434 0.056840666
0.022014836 0.0091080628 0.032155383
-0.021787155 0.0091083348 0.063285775
0.022089159 0.0091072507 0.03816472
-0.015885038 0.0091075264 0.065563567
0.029810252 0.0091064684 0.03925506
0.020105621 0.0091067441 0.049058691
0.018092411 0.0091052689 0.054028615
0.019827243 0.0091043897 0.0566057
0.0068529625 0.0091058314 0.068200238
-0.0082815047 0.0091044046 0.081056297
0.045692548 0.0091034248 0.049423244
0.038745385 0.0091031529 0.057115618
0.036657982 0.0091028959 0.061737597
0.04252664 0.0072267428 0.06065692
0.0020427175 -0.011383815 0.083902627
0.034197301 -0.007113941 0.068964176
0.037293322 -0.027252879 0.065833919
-0.0013781193 0.049116388 -0.065244824
0.022292094 0.049116023 -0.043914605
0.025182826 0.049115159 -0.035638425
0.018121785 0.049113847 -0.033714484
0.0015636306 0.049112543 -0.03785174
-0.024063956 0.049111292 -0.047777224
0.030553086 0.049111642 -0.011130128
-0.00028146504 0.049109958 -0.024533901
-0.030224137 0.049108803 -0.03754935
0.020261291 0.046595007 -0.0070138685
-0.01617741 0.049107559 -0.020923775
0.047101203 0.027211081 -0.0070828162
-0.0050094947 0.048636526 -0.00698651
-0.038456958 0.049104892 -0.022178251
0.021466827 0.028381139 -0.0070572495
-0.015592136 0.043778792 -0.0069886558
-0.043611642 0.049102813 -0.013676073
0.02010786 0.016711734 -0.0070830174
-0.023107512 0.037021257 -0.0069976114
0.041845553 0.0091203749 0.0067920275
-0.0063235918 0.01950625 -0.0070531629
-0.051076882 0.021457672 -0.027730916
0.00026139265 0.0091179609 -0.0052124523
-0.051109139 0.011698108 -0.02935731
-0.0046483856 0.0091161728 -0.00043245032
0.040999617 0.0091155916 0.030320929
-0.018042764 0.0091151185 -0.0011776872
0.023996001 0.009115234 0.027254986
-0.038052034 0.0091134496 -0.0062788129
0.00054393534 0.009114217 0.019940712
0.03728874 0.0091123693 0.044986442
-0.029021807 0.0091126077 0.0085987821
0.0086371098 0.0091107823 0.0341295
-0.051109012 -0.002389811 -0.0065659098
-0.013629414 0.0091117993 0.026988642
0.025790285 0.0091106445 0.053507637
-0.027164472 0.0091084167 0.025020652
0.014369099 0.0090194121 0.052718073
-0.033708766 0.0091075897 0.027165394
0.014263106 -0.0036923271 0.050992779
-0.034887962 0.0091067851 0.032426499
0.013102556 0.00051335245 0.059084583
-0.028421039 0.0091060139 0.0422232
-0.037607662 0.0091057122 0.040311176
-0.036669064 0.0091048256 0.044578604
-0.035749793 0.009104535 0.04875882
-0.049449272 0.009104263 0.043830886
0.0019104667 0.0091038346 0.077315435
-0.011960356 0.0091046803 0.072176293
-0.019623086 0.0091033019 0.070805073
-0.021261239 0.0091030411 0.07309179
-0.01588589 0.0091017075 0.079648703
-0.046827324 -0.014213737 0.057199538
-0.021102119 0.0050081015 0.082905382
-0.005995851 0.048889734 -0.058466259
-0.028939204 0.048865944 -0.018540088
-0.051173832 0.047210909 -0.013275597
0.029579921 0.041586526 -0.0068873949
0.0075131962 0.039360084 -0.0068603456
-0.012612708 0.037329458 -0.0068356581
-0.031042727 0.035469778 -0.0068137832
-0.047982965 0.033760428 -0.0067936741
0.042456307 0.023394149 -0.0069178753
0.018641055 0.02193363 -0.0068879686
0.0011816145 0.020128898 -0.0068675093
-0.01505717 0.018450584 -0.0068477206
-0.030198179 0.016885486 -0.0068300068
0.048367109 0.0088787973 0.013590187
0.00077994831 0.0088724419 0.00064622238
0.045989618 0.0088700131 0.03612249
-0.021323355 0.0088644139 0.0083737187
0.0087119564 0.008861497 0.033319041
0.035894115 0.0088595971 0.056179266
-0.039505158 0.0088546351 0.020815372
-0.014340539 0.0088538341 0.041592181
0.013727531 0.0068513826 0.057420637
-0.051232688 -0.0054698419 -0.011136208
-0.04013747 0.0088445544 0.044266984
-0.018718997 0.0088442266 0.061671995
0.0018173729 0.0088407546 0.078349926
-0.051144514 -0.0045422427 0.01643724
-0.040645927 0.0088359416 0.063145049
-0.020271439 0.0088353306 0.079137586
0.014006333 0.00091998279 0.083287261
-0.049820248 0.0023976453 0.054511674
-0.028930012 0.0043543987 0.075391874
0.0051245512 -0.0025063343 0.083296254
-0.046273876 -0.0024590921 0.058058295
-0.021427749 0.00043321401 0.082892604
-0.051104829 -0.016620424 0.033626638
-0.028731592 -0.0048031081 0.075593777
-0.051174946 -0.029832155 0.016529363
-0.02864402 -0.0088387281 0.075682595
-0.051080368 -0.021272646 0.043227948
-0.020968759 -0.011424752 0.083323173
-0.040950708 -0.018328352 0.063384555
0.010341262 -0.026378185 0.083270639
-0.018826919 -0.019094359 0.083314255
-0.025734814 -0.02220577 0.0785954
-0.021365548 -0.024064511 0.082963929
-0.048486762 0.048416816 -0.0061969459
0.037015665 0.04655806 -0.0061969422
0.022145679 0.04284057 -0.0061969273
0.0072756889 0.039123066 -0.0061969273
-0.007594299 0.035405569 -0.0061969347
-0.022464283 0.031688072 -0.0061969347
-0.037334282 0.027970582 -0.0061969273
0.048168156 0.026111826 -0.0061969347
0.033298172 0.022394333 -0.0061969347
0.01842818 0.018676832 -0.0061969459
0.0035581898 0.014959335 -0.0061969273
-0.017969916 0.0067683309 0.08380314
0.010972328 0.0056551695 0.08380314
0.048770424 0.0055259839 0.054108858
-0.013517264 0.002315674 0.08380314
0.015424985 0.0012025125 0.083803147
-0.044715866 -0.0012211371 0.059984092
-0.0090646148 -0.0021369774 0.08380314
0.019994127 -0.003269555 0.083021984
-0.037750743 -0.0061758887 0.066917598
-0.0046119546 -0.0065896325 0.08380314
0.025476657 -0.0080675483 0.077513203
-0.031370644 -0.010714574 0.073268399
-0.0001593065 -0.011042284 0.083803132
0.031425033 -0.013273252 0.071536683
-0.025504647 -0.014887443 0.079107791
0.004293357 -0.015494939 0.083803132
0.037901316 -0.018940959 0.065029748
-0.020196188 -0.018834379 0.08380349
0.0087460056 -0.019947594 0.083803132
0.044979192 -0.025135104 0.057918038
-0.015743587 -0.023287082 0.08380314
0.013198661 -0.024400247 0.08380314
-0.041155215 -0.030657578 0.063528761
0.0054065124 -0.027739739 0.083803132
-0.0001593065 -0.029966064 0.083803132
-0.031414088 0.047585621 -0.0068196468
-0.039146222 0.0068436526 0.065248132
-0.051356442 0.042101391 -0.025140923
-0.039145514 0.0027571321 0.065246992
-0.010692639 0.0011780858 0.083358109
-0.043732621 0.028066143 -0.0067924969
-0.040017251 -0.0024458095 0.064373091
-0.021693457 -0.0066066738 0.082684673
0.016216842 0.001214508 0.083325312
-0.050656907 -0.0061313342 0.053736325
-0.03155899 -0.010172257 0.072822712
-0.0068896119 -0.009711761 0.083361462
-0.051185213 0.0027862936 0.012718875
-0.042568088 -0.013727721 0.061817169
-0.026028836 -0.017084714 0.078346334
0.00098503742 -0.014504766 0.08335565
-0.051153775 -0.0070162863 0.018437762
-0.042519908 -0.019979095 0.061861709
-0.026199246 -0.023026034 0.078173026
0.0001189523 -0.021051243 0.083361201
-0.051170256 -0.012710702 0.011304416
-0.045009639 -0.025809593 0.059370022
-0.030269472 -0.028436726 0.074101672
-0.012145497 -0.029119082 0.083381109
-0.05132607 -0.0097551607 -0.034949284
-0.051036898 -0.029439004 0.045211107
-0.035188217 -0.031515811 0.058843929
-0.014886464 -0.03151359 0.065536812
0.0068076272 -0.031511221 0.072688729
-0.051220264 -0.025636448 -0.0086538866
-0.034484528 -0.031501722 0.025524708
-0.0088712797 -0.031498011 0.032992281
0.020152709 -0.031496428 0.041890211
-0.051251307 -0.031487241 -0.022800993
-0.0082457056 -0.031482439 -0.0079576559
-0.033216413 -0.031472776 -0.050525848
0.0072927596 -0.031461056 -0.058946904
0.015900023 0.048875526 -0.035119627
0.012554322 0.047437616 -0.0058387704
-0.01136557 0.04276336 -0.0058083832
-0.033892591 0.037742734 -0.0057784207
0.04934575 0.040738821 -0.014731836
0.036173079 0.037652835 -0.0058589689
0.018613616 0.032905869 -0.0058356784
-0.00091402198 0.027626812 -0.0058097914
-0.020466918 0.021963451 -0.0057823323
-0.03971941 0.015946224 -0.005755242
0.049325898 0.02293263 -0.014225278
0.038964409 0.019983888 -0.0058497004
0.003372666 0.011727251 -0.0058026016
-0.042004533 0.0088726953 0.025928559
0.0066867424 0.0088695362 0.0033678338
0.049316231 0.0097603947 -0.012331534
-0.019881703 0.008862827 0.040030368
0.014032309 0.0088602491 0.02512848
0.044972006 0.0088565275 0.011759628
-0.020376369 0.0088522248 0.062846132
-0.0011390375 0.0035322309 0.038663529
0.035126146 0.0088485032 0.038276911
0.049302578 -0.005694462 -0.010833737
-0.0013752931 0.0088427961 0.073889814
0.0236846 0.0088419877 0.062395468
0.047724396 0.0088388026 0.051362649
-0.016850049 0.0034549683 0.084056623
0.017965138 0.0088348426 0.080364771
0.038635116 0.0065246224 0.064936653
0.049397152 -0.010039968 0.019963149
0.0064108889 0.0022445954 0.084031031
0.032597836 0.0022351891 0.070974477
0.049431283 -0.011845652 0.031048819
0.014247313 -0.00096521154 0.084024489
0.04130647 -0.0046012588 0.062257443
-0.0057317382 -0.010824349 0.084054425
0.033343531 -0.0072737392 0.070223041
-0.012337366 -0.01726619 0.084067047
0.034176059 -0.011577893 0.069387279
0.0025553519 -0.016973695 0.084049605
0.043225788 -0.017669724 0.060329814
0.022817083 -0.01622965 0.080749847
-0.0040787193 -0.026721967 0.084064417
0.049481604 -0.02741269 0.052414671
0.0028623929 -0.030311564 0.08405932
0.03399859 -0.030387495 0.069554441
0.022375938 0.0053863898 0.081259355
0.04926173 0.044150807 -0.019529048
0.033415142 0.003366556 0.070216648
0.040502328 0.03422904 -0.005756136
0.0095708035 -0.00024924427 0.084068723
0.033474483 -0.0019405894 0.070159189
0.049492396 0.0056762211 0.038758077
-0.0076623652 -0.001273144 0.084089078
0.024464928 -0.0084822364 0.079175711
0.043019913 -0.0070286226 0.060612269
0.048278671 0.01522015 -0.0057826526
0.0091334255 -0.011813559 0.08405982
0.031122649 -0.013789091 0.072517119
0.04913662 -0.01268534 0.054495689
-0.019340189 -0.011134058 0.084096417
0.016108131 -0.019414149 0.08404474
0.033672713 -0.019616622 0.069968686
0.049555887 -0.017856946 0.05024147
0.049268499 0.0051940978 -0.032906052
0.012025146 -0.024623021 0.084045775
0.030524634 -0.025941359 0.07312081
0.046255462 -0.025543306 0.057382472
0.049387529 -0.012270853 -0.0017552376
0.004677135 -0.029389849 0.084051326
0.023548031 -0.031519748 0.076489955
0.037326451 -0.03151866 0.062819198
0.049546666 -0.0299812 0.042647835
0.049294334 -0.015502729 -0.03292555
-0.01471642 -0.029496064 0.060260061
0.0019053703 -0.028837584 0.038853962
0.028168863 -0.031501483 0.029229753
0.04943721 -0.031337179 0.0067852773
-0.033046696 -0.031491764 0.039824028
-0.0014528612 -0.031486545 0.0095703937
0.04054613 -0.031482432 -0.028117348
0.0034244589 -0.03147278 -0.032310311
-0.032966293 0.048868038 -0.015219372
-0.012529256 0.048851259 -0.040404294
0.04064234 0.048839428 -0.035471093
0.013186737 0.048834138 -0.063827679
0.048029907 0.046173036 -0.039511684
0.021103973 0.046303742 -0.066427052
0.050703373 0.041913033 -0.033147741
0.024220752 0.042737417 -0.063313127
0.050744161 0.03641063 -0.022408444
0.025783371 0.039168738 -0.061752524
0.050739374 0.032923914 -0.025369328
0.026549371 0.035578407 -0.060988408
-0.016358739 0.03023738 -0.066819131
0.043028869 0.030627951 -0.044517297
0.023138033 0.031060897 -0.06440036
-0.013262173 0.025227051 -0.066819131
0.047745705 0.025111984 -0.039804269
0.025544515 0.025957756 -0.061997
-0.01207421 0.019908231 -0.06681627
0.047897223 0.01985741 -0.039654974
0.025453931 0.020963252 -0.06208903
-0.012808934 0.014167905 -0.066810831
0.048052128 0.014484897 -0.039502341
0.024500659 0.015965991 -0.063044146
0.051028177 -0.017982014 0.0478011
0.041546483 0.0098551326 -0.046007399
0.014801893 0.0099876001 -0.066842943
0.050875746 -0.0095921848 0.0017719865
0.034171153 0.0053908862 -0.053381894
-0.001310109 0.00077672303 -0.066815034
0.045556188 -0.00048431382 -0.042003687
0.014183347 0.00029366091 -0.066833824
0.049620766 -0.0054685064 -0.037942912
0.015587198 -0.0035440009 -0.066832662
0.044768456 -0.0090773106 -0.042794805
0.0011264335 -0.01191595 -0.066807523
0.033227485 -0.01144957 -0.054331679
0.050780352 -0.019874807 -0.032392707
0.0041762707 -0.018636629 -0.066805854
0.02476377 -0.017189126 -0.062794551
0.035145413 -0.022297941 -0.052419517
0.035151623 -0.025378965 -0.05241454
0.017619247 -0.026437029 -0.066815853
0.011977442 0.047422685 -0.067338333
-0.0038003358 0.044995338 -0.067338333
0.0059090662 0.042567991 -0.067338333
0.047132432 0.047381096 -0.040853504
0.0010543643 0.038926966 -0.067338333
-0.04414871 0.044078745 -0.042551938
0.0059090662 0.035285942 -0.067338333
-0.036827322 0.038115442 -0.049907837
0.010763768 0.031644911 -0.067338333
-0.030108863 0.032643206 -0.056657966
0.015618471 0.028003883 -0.067338333
-0.023921805 0.02760382 -0.062874183
0.020473227 0.024362925 -0.0673379
-0.018364443 0.023149185 -0.067338333
0.026333757 0.021536116 -0.061556417
-0.013509744 0.019508153 -0.067338333
0.032690518 0.018485256 -0.05522893
-0.0086550396 0.015867133 -0.067338333
0.039598428 0.015169874 -0.048352804
-0.0038003358 0.012226105 -0.067338333
0.047132432 0.011554014 -0.040853504
0.0010543643 0.0085850768 -0.067338333
-0.04414871 0.0086034238 -0.042551938
0.0059090662 0.0049440525 -0.067338333
-0.036827322 0.0041635744 -0.049907837
0.010763768 0.0013030283 -0.067338333
-0.030108863 8.9347363e-05 -0.056657966
0.015618471 -0.0023380034 -0.067338333
-0.023921805 -0.0036626235 -0.062874183
0.020473227 -0.0059790444 -0.0673379
-0.018364443 -0.007192703 -0.067338333
0.026333757 -0.010003245 -0.061556417
-0.013509744 -0.010833729 -0.067338333
0.032690518 -0.014364576 -0.05522893
-0.0086550396 -0.014474757 -0.067338333
0.039598428 -0.019104045 -0.048352804
-0.0038003358 -0.018115783 -0.067338333
0.047132432 -0.024273062 -0.040853504
0.0010543643 -0.021756807 -0.067338333
-0.04414871 -0.02687189 -0.042551938
0.0059090662 -0.025397835 -0.067338333
-0.040407617 -0.030443847 -0.046310883
-0.021008199 -0.029344374 -0.06580171
0.028218891 0.044636391 -0.059422653
0.047647104 0.044593044 -0.04000577
0.040268991 0.039443783 -0.047376614
0.046429329 0.037623517 -0.041219305
-0.01588613 0.043815114 -0.066809759
0.010490291 0.030720644 -0.066849411
0.03033345 0.026028436 -0.057299364
0.046168223 0.026282292 -0.041473795
-0.0060659447 0.028446686 -0.066831887
0.023874139 0.017156169 -0.063750252
0.042981662 0.017893616 -0.044654366
-0.0092297038 0.02136204 -0.066833183
0.024017626 0.0099233724 -0.063603207
0.043835092 0.010542162 -0.043797527
-0.0043921014 0.012104437 -0.066845164
0.027753873 0.0034838468 -0.059865627
0.048601829 0.0039933771 -0.039029729
0.0056019691 0.0020296238 -0.066863716
0.033277225 -0.0026146434 -0.054342266
0.050861593 0.0064078458 -0.011914197
0.02350151 -0.0080865659 -0.064109758
0.050779469 -0.00541519 -0.031991143
0.021868838 -0.012250921 -0.065738797
0.050828096 -0.0050726794 -0.017684724
0.027992489 -0.015386563 -0.059617463
-0.015114313 -0.010705976 -0.066848367
0.044228945 -0.017443979 -0.043388482
0.022093158 -0.021166503 -0.065510049
0.051057093 0.0023910813 0.049373731
0.044118054 -0.022706056 -0.043496456
0.02221762 -0.02611579 -0.065382987
0.051037189 -0.0061296243 0.046683002
0.044924442 -0.027773941 -0.042688128
0.024824038 -0.030752296 -0.062775478
-0.0090979524 -0.028324381 -0.066867709
0.050747558 -0.031372819 -0.031898629
0.023118926 -0.03151023 -0.042972188
-0.0067918589 -0.031506073 -0.0542573
0.050844703 -0.03143286 -0.0021420717
0.017187571 -0.031497072 -0.014287714
-0.019498017 -0.031492438 -0.027122829
0.043515541 -0.031484641 0.034269009
-0.006664536 -0.031477153 0.016171504
-0.0028031156 -0.029068712 0.068336278
0.029781608 0.048868187 -0.013450023
-0.026734738 0.04885219 -0.016345356
-0.0049969032 0.0488391 -0.057694908
-0.042856432 0.04871399 -0.044571642
-0.0073861894 0.046504892 -0.067558303
-0.039441437 0.045364976 -0.047987144
-0.00049772358 0.042368799 -0.067568764
-0.036027234 0.042016871 -0.051401284
0.0033353951 0.038305141 -0.067575842
-0.035178259 0.038501717 -0.052248735
0.0020187139 0.034671463 -0.067576706
-0.036924489 0.034752928 -0.050499555
0.01152173 0.029626463 -0.067590967
-0.026628489 0.031909473 -0.060800243
-0.048741426 0.028809879 -0.038673121
0.012235967 0.024149492 -0.06759578
-0.024857851 0.027180225 -0.062569156
-0.047023304 0.023797903 -0.040389318
0.012969147 0.018527243 -0.067600712
-0.024757126 0.022210639 -0.06266731
-0.047163699 0.018512685 -0.040246073
0.013722037 0.012753844 -0.067605793
-0.024654258 0.017135169 -0.062767595
-0.048265353 0.012992818 -0.039141323
0.00484011 0.0087997466 -0.067597747
-0.030711675 0.011148535 -0.05670369
-0.04971965 -0.0013123881 -0.013011847
-0.0089257862 0.0061750636 -0.067583844
-0.038018771 0.0047150627 -0.049389008
-0.049544599 -0.024501219 0.030703634
-0.024359584 0.0026030093 -0.063054502
-0.049744487 -0.0084635913 -0.023518112
-0.01986715 -0.00079896301 -0.06754759
-0.049777754 -0.0086824335 -0.034015145
-0.021513211 -0.0052386709 -0.06589821
-0.049693793 -0.022591986 -0.013707738
-0.03054253 -0.011128914 -0.056861218
-0.0035618483 -0.016991682 -0.067606151
-0.04977037 -0.019981215 -0.036152188
-0.035274647 -0.019469921 -0.052121539
-0.025753014 -0.020555923 -0.061647784
-0.028532578 -0.024171019 -0.05886488
-0.045377638 -0.03097002 -0.042006981
-0.022493795 0.043396808 -0.064966381
0.0048720152 0.047852546 -0.067686915
-0.0015069732 0.041893877 -0.0676741
0.012570882 0.043897241 -0.067693785
-0.047596186 0.036488689 -0.039858613
-0.03631001 0.030684415 -0.051150594
-0.021981908 0.024422031 -0.065486133
0.0090844594 0.030752949 -0.067678496
-0.044251911 0.024517328 -0.043208551
-0.026759574 0.017914485 -0.060709659
-0.0015993651 0.019288395 -0.067655355
-0.049159326 0.017725345 -0.038302425
-0.028710512 0.010942228 -0.058760624
0.0014578153 0.012529302 -0.067653775
-0.044951033 0.0094197504 -0.042514864
-0.024276143 0.0030566268 -0.063199893
0.010358417 0.0073170364 -0.067660943
-0.039981775 0.0013478249 -0.047489326
-0.018616665 -0.0041792709 -0.067614466
-0.049769387 0.005161345 -0.020340446
-0.030706994 -0.0069623273 -0.05677088
0.008923403 -0.0049146544 -0.067649201
-0.035249315 -0.010401461 -0.052228037
0.010326982 -0.0089498796 -0.067647681
-0.03076721 -0.014948836 -0.056713764
-0.04973511 -0.0041792728 -0.0057684183
-0.01478528 -0.01914512 -0.067607224
-0.039753351 -0.019158255 -0.04772618
-0.049639042 -0.0024253838 0.02364774
-0.016688118 -0.024520377 -0.06760022
-0.039695542 -0.024345383 -0.047786023
-0.04965543 -0.010074608 0.021688156
-0.013889266 -0.029049009 -0.06760022
-0.036974542 -0.029648492 -0.050510164
-0.049738847 -0.021819139 -0.00049777701
-0.00072649762 -0.031512178 -0.063705221
-0.022323506 -0.03151023 -0.043660711
-0.045508321 -0.03150722 -0.022137079
0.026036715 -0.031499982 -0.05024622
0.000678009 -0.0314954 -0.02551597
-0.026878504 -0.031493109 0.0013382435
0.045121964 -0.031484496 -0.020707864
-0.0014324728 -0.031476229 0.020985652
0.029978927 -0.031466387 0.031615667
-0.02267094 0.0013108402 0.08154016
-0.048789363 0.0060633421 0.055440541
-0.028126471 -0.023429157 0.07604599
-0.013807246 -0.026625127 0.083205298
-0.0038017244 -0.019011797 0.083185323
-0.010491687 -0.031826355 0.081554025
-0.01935621 -0.031825792 0.0730865
-0.033699177 -0.031825632 0.061172012
-0.051095918 -0.0037874505 0.033049218
-0.012201598 -0.031825829 0.069764346
-0.039892334 -0.031824794 0.049438354
-0.0020434025 -0.03182428 0.071198702
-0.031174758 -0.031824991 0.049880054
-0.051042106 -0.02261843 0.028687201
0.010339923 -0.020723848 0.063631296
-0.036435507 -0.031823188 0.0380219
0.010158508 0.0028194934 0.04254375
0.025870038 -0.031822991 0.072952636
-0.02878849 -0.031822324 0.035514973
0.011095062 -0.011033121 0.043740474
0.030324735 -0.031822115 0.068309374
-0.030286688 -0.031820949 0.027023271
0.0022703363 -0.022382727 0.038080908
0.026580952 -0.03182023 0.058254607
-0.039145447 -0.031819496 0.013626598
-0.011481591 -0.031818882 0.028684612
0.015282068 -0.031818263 0.043162014
0.042364698 -0.031819608 0.057813499
-0.03016784 -0.031818353 0.0087337568
-0.0041252384 -0.031817708 0.022663996
0.020969689 -0.031817064 0.035981983
0.046373159 -0.03181795 0.049465023
-0.028374502 -0.031815577 -0.0012528561
-0.00020333671 -0.031815946 0.013856087
0.028324666 -0.031815249 0.029155418
-0.041950941 -0.031813867 -0.019030813
-0.01047593 -0.031815302 -0.0019987412
0.02274934 -0.031814601 0.016081437
-0.044012196 -0.031812627 -0.030185234
-0.0076134335 -0.031812422 -0.010241296
0.030646807 -0.031812802 0.010819744
-0.022460608 -0.031810734 -0.027280543
0.023504745 -0.031810526 -0.0015643053
-0.016556136 -0.031809531 -0.031819109
0.039012037 -0.031810477 -0.00027945265
0.012869144 -0.031808298 -0.022166792
-0.0036945522 -0.03180724 -0.038296025
-0.011758487 -0.03180616 -0.04934286
-0.010947857 -0.031805024 -0.0550831
0.00067543611 -0.031804502 -0.054326054
0.034554802 -0.031803954 -0.040008608
0.019803537 0.0050131828 0.083569936
0.036490954 -0.00046124868 0.066884086
0.02421817 -0.025810748 0.079179369
0.034875076 -0.02298506 0.068517767
0.037664652 -0.027671775 0.065731265
0.03197173 -0.031826347 0.068081714
0.020086166 -0.031825785 0.072438449
0.0016013595 -0.031826064 0.080812857
0.04438965 -0.031825978 0.052819654
0.018337812 -0.031824958 0.06577459
-0.012610464 -0.031825233 0.081690192
0.023583336 -0.031824272 0.057689372
-0.0055959364 -0.03182454 0.072408423
0.049356148 -0.014617966 0.026636174
0.028589768 -0.031823818 0.046172705
-0.012685446 -0.031823188 0.068183407
0.018260293 -0.031824004 0.047280252
0.048401352 -0.03182207 0.026852876
-0.016088175 -0.017730046 0.053363856
0.019502304 -0.031822212 0.039198004
0.047988113 -0.031820696 0.01971145
-0.016092084 -0.030159658 0.05425977
0.011249907 -0.031819861 0.036645096
0.036747769 -0.031820234 0.018918399
-0.034074064 -0.031819504 0.058681827
-0.0096446816 -0.031762253 0.041498572
0.015136268 -0.031818263 0.024165533
0.038946666 -0.031818118 0.0073621459
-0.03774897 -0.031817853 0.050511304
-0.01508473 -0.031818219 0.034339942
0.0078565972 -0.03181706 0.017969444
0.031081419 -0.031816393 0.0013971254
-0.045525774 -0.031816624 0.044224098
-0.018301366 -0.031816464 0.025096208
0.010574019 -0.031814724 0.0049172863
0.039817922 -0.031814564 -0.015517544
-0.02981923 -0.031814229 0.022707021
0.0024142037 -0.031814065 0.00033203885
0.03641839 -0.031812798 -0.023170535
-0.028268488 -0.031812429 0.01173804
0.0089652278 -0.031812247 -0.013859373
-0.049028963 -0.031812411 0.016707473
-0.0041527646 -0.031811099 -0.013720732
-0.049283113 -0.031811263 0.0086769499
0.0036970321 -0.0318099 -0.026872743
-0.024823116 -0.031808879 -0.014975
-0.045305405 -0.031809025 -0.008206971
0.021494335 -0.031806402 -0.052503917
0.014806444 -0.031805892 -0.054520939
0.018629195 -0.031804755 -0.063216835
-0.031743828 -0.031804573 -0.041941885
-0.017219717 -0.031802449 -0.061236557
0.0044120541 -0.031981401 0.075307667
-0.021492379 -0.031980716 0.070736557
-0.0032482003 -0.02948712 0.068577245
0.0030608673 -0.021563975 0.068179488
-0.0035637089 -0.010444934 0.068551734
-0.021492301 -0.03198139 0.058546022
0.040983051 -0.031980712 0.057022437
0.031840306 -0.031980712 0.053974856
0.024221262 -0.031981394 0.050927103
0.024221351 -0.031980716 0.047879696
0.024221431 -0.031980045 0.044832267
0.021173842 -0.031980053 0.041784674
-0.012349542 -0.031982061 0.038736679
0.048602182 -0.031980045 0.037213288
-0.00015930555 -0.031982064 0.034165345
-0.048920617 -0.031980716 0.031117996
0.0028882753 -0.031981386 0.029594103
-0.045873038 -0.031980716 0.02654662
0.0059358692 -0.031980719 0.025022835
-0.042825453 -0.031980727 0.021975253
0.0089834435 -0.031980723 0.02045146
-0.039777853 -0.031980719 0.017403875
0.012031022 -0.031980727 0.015880089
-0.036730282 -0.031980723 0.012832504
0.015078608 -0.031980716 0.011308718
-0.033682581 -0.031981394 0.0082611144
0.018126188 -0.031980719 0.0067373402
-0.030635012 -0.03198139 0.0036897548
0.02117377 -0.031980708 0.0021659732
-0.02758754 -0.031980716 -0.0008816123
0.024221351 -0.031980716 -0.002405405
-0.024539961 -0.031980723 -0.0054529868
0.027268929 -0.031980719 -0.0069767796
-0.021492379 -0.031980716 -0.010024358
0.030316513 -0.031980708 -0.01154815
-0.018444791 -0.031980723 -0.014595721
0.033364091 -0.031980712 -0.016119521
-0.01539721 -0.031980727 -0.019167099
0.036411677 -0.031980719 -0.020690892
-0.012349628 -0.031980716 -0.023738477
0.039459262 -0.031980708 -0.025262263
-0.0093020452 -0.031980723 -0.028309848
0.04250684 -0.031980716 -0.029833641
-0.0062544718 -0.031980723 -0.032881219
0.045554422 -0.031980716 -0.034405004
-0.001683094 -0.031981397 -0.037452448
-0.038254075 -0.031980719 -0.040500175
0.024221351 -0.031980716 -0.042023961
0.0059358352 -0.031981397 -0.045071367
-0.00015930746 -0.031980716 -0.048119124
0.0059358352 -0.031981397 -0.051166508
0.024221351 -0.031980716 -0.05421428
-0.0016830949 -0.031980716 -0.058785658
-0.00015930746 -0.031980716 -0.06335704
0.035433125 0.042319618 -0.052082393
0.020880969 0.010411736 -0.066573784
0.029771335 0.0053569376 -0.057677586
0.0029492194 0.015072674 -0.066650271
0.050659236 0.0028362833 -0.036794592
0.046634533 -0.0084025823 -0.040798273
0.047252782 -0.015187889 -0.040168617
0.050778273 -0.0037979502 -0.028722022
-0.0066414941 -0.012211822 -0.066690043
0.01130732 -0.031825237 -0.062576264
0.023904208 -0.031824633 -0.051510688
0.041214086 -0.031824011 -0.037461828
-0.0041431831 -0.031823475 -0.063791499
0.019916564 -0.031823285 -0.045461129
0.050213642 -0.031822626 -0.023199167
0.01053245 -0.031822525 -0.045925502
0.047036674 -0.031821862 -0.019707803
0.0078320988 -0.031821281 -0.042077992
0.048472103 -0.031821065 -0.013178904
0.010974552 -0.031820942 -0.034429971
-0.02576285 -0.031819876 -0.055188317
0.021474477 -0.031820115 -0.022034351
-0.014634116 -0.031819019 -0.042334948
0.037266973 -0.031818762 -0.0061564855
0.0030786549 -0.031818621 -0.025198285
-0.030277668 -0.031817485 -0.043699894
0.028995501 -0.031817708 -0.0027644821
-0.0022807545 -0.031817067 -0.01990274
-0.032668117 -0.031816397 -0.036464568
0.035801638 -0.031816617 0.010370944
0.0063798581 -0.031815935 -0.0055099316
-0.023413938 -0.03181579 -0.021592114
0.049576495 -0.031814937 0.028271431
0.019484829 -0.031814769 0.012095947
-0.012338229 -0.031815145 -0.0051187351
-0.045929201 -0.031812258 -0.023390558
0.020972848 -0.031811878 0.023027318
-0.01444199 -0.03181335 0.0037236102
0.048657302 -0.031811856 0.047998536
0.0098978318 -0.031812225 0.026735093
-0.030808413 -0.031809758 0.0043086745
0.018039919 -0.031810474 0.040068351
-0.032128405 -0.031808533 0.011908744
-0.0066685686 -0.0059580617 0.066850305
0.031895675 -0.031808201 0.063261852
-0.03196124 -0.031806748 0.026850604
-0.019742409 -0.031805657 0.040643446
-0.016405825 -0.031805743 0.049131215
-0.022356384 -0.031804584 0.052075565
-0.042787123 -0.031804036 0.046273321
-0.039677199 -0.031803168 0.058835026
-0.027025325 0.028640449 -0.060178529
-0.033074044 0.019276533 -0.054135684
-0.011405836 0.0050551444 -0.067563891
-0.029092975 -0.007013116 -0.058135826
-0.036306463 -0.0085501634 -0.050922673
-0.039295726 -0.013572237 -0.047936615
-0.038126681 -0.021568526 -0.04911137
-0.03333611 -0.031743962 -0.05390982
-0.022189431 -0.031825755 -0.057662148
-0.0064154845 -0.031825151 -0.06416516
-0.049621366 0.00022994354 -0.017701719
-0.031537924 -0.031824451 -0.043639194
-0.0064562415 -0.031823825 -0.055716965
-0.048453636 -0.03182283 -0.028020885
-0.016296186 -0.031823095 -0.044358525
0.021196092 -0.031821508 -0.063913062
-0.017184375 -0.031822797 -0.038355093
0.024457596 -0.0318207 -0.060350355
-0.01220092 -0.031821061 -0.035792645
-0.049280152 -0.031820469 -0.01095238
-0.0022402653 -0.03181975 -0.036109809
-0.037495833 -0.031819634 -0.012329135
0.015407166 -0.031818394 -0.040970448
-0.017914345 -0.031819742 -0.01831479
-0.049649388 -0.025352551 0.0088141449
0.011142493 -0.031817351 -0.029932138
-0.019238748 -0.031818219 -0.0089918487
-0.048724629 -0.031817064 0.011423409
0.020777661 -0.031816766 -0.027067598
-0.0077199931 -0.031816095 -0.0071808882
-0.035277136 -0.031815939 0.012152649
0.038797956 -0.031814571 -0.028934721
0.0096853133 -0.03181386 -0.0085502043
-0.021136148 -0.031815309 0.012919042
0.048310507 -0.031812258 -0.025059197
0.014416476 -0.031814266 -0.0015955046
-0.019923817 -0.031812426 0.022181466
0.044470876 -0.031810943 -0.012409274
0.0068456363 -0.031810727 0.013500225
-0.032696404 -0.031811658 0.040629134
0.026175251 -0.031810109 0.0097409114
-0.019792804 -0.031810477 0.040954776
0.024505256 -0.031807721 0.019307952
-0.029776342 -0.031808067 0.055779986
0.010119412 -0.011359151 0.064373195
0.022562928 -0.031805892 0.035560414
0.034595773 -0.031806011 0.034455262
0.037674166 -0.031804856 0.039076317
0.029810034 -0.031804942 0.050657384
0.0072954441 -0.031802461 0.071505107
0.024536658 -0.031801902 0.075373173
0.023039609 0.048965842 -0.023097817
0.0095095728 0.048959084 -0.032618079
-0.0090184426 0.048957177 -0.010816414
-0.0051748217 0.048951231 -0.0568006
-0.016966872 0.048947908 -0.047519486
-0.026015388 0.04894504 -0.043785509
0.04078459 0.0089905635 0.042901374
-0.02867548 0.048196308 -0.059243005
-0.043059908 0.048940219 -0.034856122
-0.05033892 0.046973519 -0.011762921
0.014486931 0.0063146874 0.057060145
-0.0060898932 0.0089808516 0.081994779
-0.036544096 0.042145193 -0.051371884
-0.049818505 0.044614173 -0.038079027
-0.050340898 0.040887974 -0.023522917
-0.0024204487 0.0089704245 0.014559779
-0.01331773 0.0089687668 0.032577347
-0.024504697 0.0089696236 0.051655546
-0.02225472 0.027550034 -0.065695718
-0.038679585 0.031456664 -0.049246769
-0.050340239 0.03319747 -0.034025799
-0.050322201 0.02752246 -0.014216263
-0.032891836 0.0089607537 0.018319469
-0.044412002 0.0089601576 0.040135205
-0.02820193 0.018500768 -0.05975249
-0.047629826 0.02423415 -0.040294547
-0.05031576 0.018832844 -0.016992088
-0.048309188 0.0089553148 0.011804309
-0.050263669 0.00074720755 0.042967498
-0.036859617 0.012043077 -0.051091764
-0.050316863 0.013253119 -0.026916068
-0.050289467 0.0036437586 0.0030722059
-0.050257258 -0.0078233648 0.038859021
-0.038472261 0.0042409338 -0.049486715
-0.050304092 0.0033179298 -0.021418218
-0.050271288 -0.0086556859 0.013939437
-0.023296714 -0.010168789 -0.064697355
-0.050309338 0.00014845282 -0.034451585
-0.050274186 -0.012988839 0.0023995973
-0.050230883 -0.029359804 0.048322618
-0.050301485 -0.0073706061 -0.033392686
-0.050251439 -0.026511744 0.019167714
-0.050288275 -0.015914405 -0.024747249
-0.048703671 -0.016223861 -0.039267514
-0.050274923 -0.026103094 -0.018591758
0.038864434 0.048979834 -0.044332463
0.017401656 0.048971139 -0.03944065
0.015326411 0.048966147 -0.0092729293
0.04178511 0.038112618 -0.0076311491
-0.021639219 0.044735633 -0.066730663
-0.037249297 0.048953176 -0.04629067
-0.042205133 0.048950031 -0.035823192
-0.046290062 0.048947342 -0.024921823
-0.049139827 0.04894466 -0.01242565
-0.037533291 0.042335548 -0.0073368624
-0.048658498 0.043919317 -0.0072928146
0.042663172 0.0089840144 0.024031024
-0.050850384 0.039168924 -0.01557998
0.014890844 0.0094615221 -0.0076001696
0.027094668 0.008974798 0.033460595
-0.050866239 0.029355466 -0.036531758
-0.050468646 0.033008821 -0.0073101595
-0.0033718147 0.0089695975 -0.002202291
0.0030532461 0.0089692101 0.024821892
0.013640634 0.0059577562 0.047249958
0.012377735 0.0089641139 0.068727508
-0.050873443 0.018058844 -0.035136636
-0.050862756 0.020728748 -0.0146177
-0.029518886 0.0089596324 -0.0051621571
-0.025010485 0.0089586712 0.014983911
-0.020620462 0.0089562833 0.034590393
-0.016351411 0.0089571998 0.053680234
-0.012188518 0.0089548938 0.072272003
-0.05087956 0.0054998547 -0.02841704
-0.050050884 0.0089510605 -0.0049188137
-0.045173619 0.0089509711 0.014803827
-0.04041528 0.0089505501 0.034043543
-0.035278462 0.0089504719 0.054111417
-0.028495761 0.0080756508 0.075031072
-0.050883308 -0.005174499 -0.019304927
-0.050866589 0.00087538734 0.0093046315
-0.050849773 0.0065839477 0.035836257
-0.044845887 0.0069480203 0.058704063
-0.046863578 -0.024735179 -0.041546557
-0.050879851 -0.01145724 -0.0010230951
-0.05085922 -0.0032825842 0.031928122
-0.04393921 -0.002104383 0.059595365
-0.050902978 -0.027986612 -0.027668927
-0.050874017 -0.015072387 0.018388283
-0.043172561 -0.0097649414 0.060349736
-0.050877079 -0.020483013 0.019944228
-0.026004968 -0.025155578 0.077467002
-0.035442822 -0.023835298 0.068046197
-0.050870594 -0.024731217 0.041729856
-0.05073031 0.048057698 -0.019762415
-0.037092414 0.046077974 -0.05124018
-0.050730303 0.039834544 -0.011539277
-0.050730303 0.035722978 -0.030726608
-0.030564183 0.035453819 -0.057799879
-0.050730295 0.028870355 -0.021132935
-0.041195475 0.026180588 -0.04711749
-0.05073031 0.022017732 -0.014280315
-0.050674822 0.017912138 -0.037592556
-0.048622772 0.015357167 -0.007549908
-0.050730303 0.01105354 -0.030726608
-0.050729774 0.0083125234 -0.00057509169
-0.050729759 0.0069419891 0.021353379
-0.050729759 0.0055714622 0.030947074
-0.050729748 0.0042009354 0.040540785
-0.050729759 0.0028304085 0.05013448
-0.039507855 0.0015528426 0.063632712
-0.02212509 8.9347363e-05 0.080933347
-0.034967545 -0.002912866 -0.053374987
-0.048861694 -0.0040686615 -0.039414156
-0.050730303 -0.005392747 -0.029356088
-0.05073031 -0.006763272 -0.019762415
-0.05073031 -0.0081337951 -0.01016875
-0.050730303 -0.0095043182 -0.00057507306
-0.050730303 -0.010874843 0.0090185925
-0.05073031 -0.012245368 0.018612262
-0.050729766 -0.013615936 0.028206008
-0.050729759 -0.014986463 0.037799716
-0.050729766 -0.016356993 0.047393419
-0.04391643 -0.018461287 0.059244853
-0.027430894 -0.021800248 0.07565248
-0.030564183 -0.024512023 -0.057799879
-0.045114141 -0.024000499 -0.04317962
-0.05073031 -0.024580084 -0.032097135
-0.050730303 -0.025950609 -0.022503454
-0.050730303 -0.027321134 -0.0087982193
-0.05073031 -0.028691657 0.013130162
-0.05073031 -0.03006218 0.046022739
-0.050996717 0.034190498 -0.013304625
-0.050993003 0.027132463 -0.018123936
-0.040242359 0.028455347 -0.0074451752
-0.032500148 0.0080460496 0.071123518
-0.016682524 0.040734366 -0.0075537562
-0.050928656 -0.0026240572 0.040213525
-0.039925441 -0.0027814768 0.063718811
-0.050989445 0.013561208 -0.034923334
-0.050960179 0.0028629452 -0.0037014559
-0.05093554 -0.0062957834 0.023026567
-0.050915305 -0.013879856 0.044884153
-0.039955202 -0.012847539 0.06370075
-0.024797862 0.026776347 -0.063828111
-0.050958343 -0.0051751994 -0.014627706
-0.050938107 -0.012606861 0.0082573071
-0.050920185 -0.019188017 0.028523304
-0.050904188 -0.025056766 0.046595536
-0.043593042 -0.025201811 0.060082316
-0.029541992 -0.021440016 0.074111335
-0.050959013 -0.013754772 -0.030549701
-0.050941233 -0.019989265 -0.0098339729
-0.050926037 -0.025277242 0.0073093958
-0.050912593 -0.03009039 0.022912767
-0.046067037 -0.031628042 0.035937451
-0.038557597 -0.031627227 0.048405714
-0.030825211 -0.031625908 0.061242599
-0.022862088 -0.03162526 0.074464858
-0.05094498 -0.028542418 -0.031515021
-0.048303865 -0.031622738 -0.016459081
-0.040612243 -0.031621747 -0.0049457029
-0.03267106 -0.031620733 0.0069412328
-0.024985915 -0.031619683 0.017864227
-0.017039714 -0.031616982 0.029152654
0.0052563907 -0.025146674 0.038445618
0.014405476 -0.025176205 0.051555924
0.0084799174 -0.031610284 0.065412864
0.017033504 -0.031608079 0.076891266
-0.02346787 -0.031606738 -0.052172396
-0.013840782 -0.031604342 -0.039150823
-0.0026261639 -0.031602789 -0.022438537
0.011510135 -0.031602129 0.0014302135
0.028756168 -0.031597879 0.032884598
0.0073824292 -0.031595267 -0.052142959
0.033054344 -0.031591959 -0.00041822344
0.037879985 -0.031588554 -0.020807642
-0.036885161 0.046889164 -0.051264975
-0.033235036 0.042406954 -0.054914389
-0.050362356 0.031553335 -0.026704598
-0.030072602 0.033272751 -0.05806772
-0.050373878 0.018684678 -0.033941213
-0.050361104 0.023447707 -0.0088657215
-0.04198857 0.012368411 -0.046101827
-0.05037969 0.0075101703 -0.027563404
-0.023151653 0.012323622 -0.064968154
-0.031762369 0.0043797195 -0.056331847
-0.050364748 0.0077403374 0.010390375
-0.05038508 -0.0041180085 -0.018498514
-0.023603672 -0.0010529142 -0.064495131
-0.050395366 -0.012599278 -0.0310998
-0.050376479 -0.0053391494 0.0029173084
-0.050356008 0.0018573031 0.03780333
-0.034894634 -0.014397668 -0.053166088
-0.05040092 -0.020454861 -0.03076246
-0.050386783 -0.01590864 -0.005308874
-0.050370671 -0.010724898 0.02371408
-0.022157891 -0.01775438 -0.06591846
-0.041554265 -0.026355334 -0.046478052
-0.050404981 -0.028828701 -0.027784456
-0.050393142 -0.025553033 -0.0056614988
-0.050381802 -0.022577595 0.015809599
-0.050369259 -0.019283798 0.039578103
-0.028745554 -0.031020425 -0.059300404
-0.033699609 -0.031623822 -0.041752513
-0.036663909 -0.031622898 -0.026132595
-0.039719924 -0.031621952 -0.010029417
-0.042872421 -0.031621221 0.0065796152
-0.046125554 -0.031620469 0.023718834
-0.04948464 -0.031619955 0.041413687
-0.0022895201 -0.03161509 -0.063425973
-0.004000206 -0.031613637 -0.049115274
-0.0057702577 -0.031612124 -0.034307886
-0.0076028402 -0.031610567 -0.018977504
-0.0089367842 -0.031608954 -0.0045738891
-0.010318298 -0.031606689 0.010357693
-0.012338852 -0.031605233 0.027378401
-0.01563089 -0.031604346 0.048169307
-0.019661786 -0.031604975 0.071354792
0.03065099 -0.031599186 -0.033523094
0.021513192 -0.031598423 0.004632201
0.014880455 -0.029309083 0.054767657
0.03988985 -0.031589601 0.0030101873
0.042982116 -0.031585254 0.029441416
-0.035772428 0.048973441 -0.01143704
-0.0081504695 0.048970446 -0.046216208
0.011364792 0.048965611 -0.063478529
-0.042320676 0.034301139 -0.0055878647
-0.02575279 0.035509378 -0.0056463443
-0.0065476564 0.038080983 -0.005717814
0.0099472636 0.040289357 -0.0057797618
0.030563818 0.044521578 -0.0058605149
0.047476467 0.047993459 -0.0059267581
0.034305636 0.039885283 -0.005863484
-0.042273961 0.0089840218 0.022177955
0.014895776 0.026871368 -0.0057678707
0.049987927 0.037236489 -0.02563164
-0.030060289 0.0089752376 0.040393051
-0.012914912 0.0089751706 0.0070650093
0.032815941 0.026478425 -0.0058291554
0.049983308 0.030214828 -0.021833669
-0.021744212 0.0089688003 0.07291922
-0.015544994 0.0064394213 0.053831629
-0.00020585145 0.0089664906 0.036038738
0.010098158 0.0089642219 0.018391091
0.020111697 0.0089623816 0.0012421831
0.046264246 0.020204656 -0.0058621466
0.049967803 0.016385585 -0.025469411
0.0044446173 0.008957386 0.076110013
-0.015442438 -0.0095209107 0.055868741
0.02411945 0.0089545399 0.040200777
0.034103416 0.0089533515 0.021562338
0.043833878 0.008952193 0.0033971705
0.049963929 0.0062071793 -0.016615976
0.021594327 0.0089498907 0.082480684
0.031501938 0.0089504793 0.063164368
0.041658558 0.0089494139 0.04303164
0.049987581 0.007668592 0.022786042
0.049965702 -0.00093417615 -0.0022779703
0.049934689 -0.011986669 -0.035199549
0.041763097 0.005905956 0.062327303
0.049992725 0.0035698749 0.038607821
0.049966093 -0.0070749987 0.0087548979
0.049932316 -0.019819524 -0.026982319
0.042001404 -0.0026472341 0.062099382
0.049980339 -0.0069423802 0.033330552
0.049946848 -0.020199994 -0.0018956847
0.031916015 -0.015358089 0.072211221
0.049971037 -0.015400037 0.03059417
0.035225652 -0.019420879 0.068902843
0.049945675 -0.0287634 0.0096599236
0.034164589 -0.028166842 0.069974996
0.049974944 -0.024886688 0.053368125
-0.035895772 0.048967116 -0.039421771
-0.024586709 0.048962131 -0.056984406
0.0017626267 0.048955478 -0.028964255
0.0047197458 0.048952587 -0.045681123
0.0094011761 0.048950113 -0.055918444
0.015605416 0.048947476 -0.060427468
0.038595345 0.048944846 -0.019445378
0.031857517 0.048942894 -0.046157572
-0.011741853 0.0089871362 0.075736359
-0.020330897 0.008984495 0.039598748
0.050507214 0.047368057 -0.021023583
0.048135106 0.047980174 -0.038686927
0.033439636 0.042597808 -0.053352159
0.018352471 0.0089747459 0.079128385
-0.0029602947 -0.0014593676 0.069144085
0.009681046 0.0089725256 0.034391142
0.050520834 0.035343692 -0.0076101311
0.050512739 0.037276156 -0.025064144
0.045402575 0.036459506 -0.041397918
0.02969761 0.029913168 -0.057069357
0.039179813 0.0089635439 0.053005204
0.03326676 0.0089621283 0.028708756
0.050528672 0.024789631 -0.0072795935
0.050517961 0.028108373 -0.029265571
0.03915108 0.024046302 -0.047621179
0.025637863 -0.017069168 0.079055019
0.049354579 0.0089565106 0.022684451
0.050535895 0.015140578 -0.0069774278
0.050522808 0.019735083 -0.03226817
0.033477299 0.012226529 -0.053268988
0.050568011 -0.0027011503 0.0357861
0.050546892 0.0045537651 0.0011482537
0.050530359 0.010776952 -0.02855828
0.032541223 0.0032301918 -0.054189835
0.050570372 -0.010744322 0.029691085
0.050548073 -0.0018772352 -0.0080068521
0.046412997 0.002599597 -0.040338192
0.050588723 -0.02465453 0.048994198
0.050561093 -0.012923172 0.0037715696
0.050537851 -0.0028524138 -0.034762908
0.050586566 -0.029282307 0.036017619
0.050549034 -0.012029151 -0.023345251
0.050572947 -0.02649617 0.0080728643
0.026760852 -0.026675545 -0.05991688
0.05056623 -0.02839444 -0.010638077
0.045823444 -0.0280891 -0.040880259
0.050411679 0.043946125 -0.0074276999
0.02291844 0.048037924 -0.063363731
0.050411694 0.037093498 -0.034838181
0.050411694 0.032981925 -0.014280323
0.038591966 0.032395072 -0.047761064
0.050411694 0.026129309 -0.021132942
0.027672546 0.026590668 -0.058631185
0.050411686 0.019276682 -0.027985569
0.021959698 0.017757855 -0.0058651753
0.050411694 0.012424067 -0.034838181
0.050411157 0.0083125234 0.050134469
0.05041115 0.0069419891 0.04054077
0.050411142 0.0055714622 0.030947063
0.05041115 0.0042009354 0.021353368
0.050411131 0.0028304085 0.011759669
0.050411697 0.0014598742 0.0021659732
0.050411679 8.9347363e-05 -0.0074276999
0.050411694 -0.0012811739 -0.017021369
0.050411694 -0.0026516989 -0.026615035
0.050131716 -0.0040291809 -0.03627364
0.036510926 -0.0058533773 -0.049832899
0.020450519 -0.008004304 -0.065820724
0.037188239 -0.010271145 0.067289077
0.050411142 -0.010874879 0.052875534
0.05041115 -0.012245407 0.043281831
0.050411142 -0.013615936 0.033688128
0.050411694 -0.014986414 0.024094351
0.050411694 -0.016356939 0.014500685
0.050411686 -0.017727461 0.0049070157
0.050411686 -0.019097986 -0.0046866536
0.050411694 -0.020468511 -0.014280323
0.050411679 -0.021839038 -0.023874003
0.050411697 -0.023209561 -0.033467654
0.040625907 -0.02603931 -0.04573657
0.025325505 -0.029899202 -0.060967814
0.050411157 -0.02869175 0.050134469
0.050411694 -0.03006218 0.018612251
0.050663594 0.044303872 -0.020615775
0.05065513 0.036351234 -0.02380589
0.03238374 0.038652442 -0.054413173
0.050645385 0.025862209 -0.023618478
0.038793832 0.024149165 -0.048027914
0.050646745 0.019659042 -0.012446854
0.050429706 0.0080179498 -0.036423657
0.032162793 0.013791844 -0.05466352
0.050634339 0.0061320253 -0.012623239
0.050632212 0.0029050559 -0.011125762
0.050654288 0.0077191219 0.018615052
0.050604049 -0.0092560779 -0.035510797
0.050660409 0.0057877712 0.032538466
0.050625138 -0.0065235272 -0.0067497194
0.050598308 -0.015631163 -0.035154369
0.028366568 -0.0082749017 -0.0584816
0.050648 -0.0044001322 0.029320564
0.050621238 -0.013544962 -0.00092495233
0.050598279 -0.021385975 -0.026858274
0.038962092 -0.020715259 -0.047912378
0.050657328 -0.0081206448 0.052117459
0.050631836 -0.016467046 0.02264642
0.05060973 -0.023703897 -0.0029068105
0.050591432 -0.029757231 -0.023956764
0.044597037 -0.031628624 -0.041606914
0.029604517 -0.028207714 -0.057268154
0.050638445 -0.022095675 0.043878332
0.050619211 -0.028159445 0.02120278
0.047352474 -0.031623885 0.0026794076
0.038914952 -0.031621698 -0.011301372
0.030213432 -0.031620208 -0.025722373
0.021734862 -0.031618405 -0.039291192
0.012982676 -0.03161734 -0.05330069
0.047266632 -0.03161725 0.055146955
0.03903503 -0.031614468 0.043436214
0.031063942 -0.031612411 0.032744206
0.022811186 -0.03161028 0.021674395
0.014262199 -0.031608377 0.010206111
0.0054033985 -0.03160787 -0.0016833656
-0.0037869147 -0.031606741 -0.014015477
-0.01392304 -0.031605572 -0.028378237
-0.025671406 -0.031603113 -0.04648165
0.0067899125 -0.031215571 0.06819398
-0.010852932 -0.031598758 0.033372723
-0.032755829 -0.031595271 -0.0091193877
-0.018873693 -0.031589244 0.058868267
-0.030346446 -0.031584509 0.063362598
0.050015207 0.041733481 -0.02009796
0.050069429 0.0065106936 0.051755104
0.043224744 0.027297389 -0.0057144649
0.050067119 0.0030158348 0.04037609
0.050031628 0.019128218 -0.017627958
0.036480393 0.00019872189 0.06773369
0.050075397 -0.0054350514 0.04536286
0.050060369 0.00026077032 0.019840576
0.050043173 0.0067809485 -0.0093755461
0.021804595 -0.0018989462 0.082428835
0.042620856 -0.012746833 0.061564129
0.050080862 -0.01436512 0.042080753
0.050068364 -0.010161856 0.019890044
0.050054494 -0.0058686808 -0.00335861
0.050041005 -0.0015272088 -0.02754939
0.03057942 -0.017407347 0.07361649
0.046071835 -0.024979608 0.058089539
0.050089046 -0.025300754 0.042663231
0.050079562 -0.022825606 0.025524056
0.050070114 -0.020465674 0.0083273277
0.05005984 -0.017901411 -0.010358315
0.050048653 -0.015105091 -0.030735012
0.031382091 -0.030002745 0.072792724
0.036727853 -0.031627815 0.059552487
0.039154138 -0.031627227 0.046009798
0.041651733 -0.031626385 0.032066658
0.04422427 -0.031625509 0.017705046
0.046875626 -0.031624861 0.0029060841
0.049122684 -0.031623945 -0.011078846
0.050061051 -0.030768538 -0.026560757
0.0053403797 -0.031617858 0.07764338
-0.012476631 -0.022724172 0.063391149
-0.01371537 -0.021244321 0.047239847
0.01011337 -0.031615552 0.036620244
0.011450083 -0.031614084 0.022947868
0.012833393 -0.031612273 0.0087923594
0.01426646 -0.031610399 -0.00587219
0.015752606 -0.031608749 -0.021073435
