# .PCD v0.7 - Point Cloud Data file format
VERSION 0.7
FIELDS x y z rgba
SIZE 4 4 4 4
TYPE F F F U
COUNT 1 1 1 1
WIDTH 1057
HEIGHT 1
VIEWPOINT 0 0 0 1 0 0 0
POINTS 1057
DATA ascii
-0.11980198 0.24850918 0.82500005 4293851132
-0.11838748 0.24881041 0.82600003 4293851132
-0.1169692 0.24911162 0.82700002 4293785596
-0.11540759 0.24911162 0.82700002 4293720060
-0.11370832 0.24881041 0.82600003 4293720061
-0.11201283 0.24850918 0.82500005 4293654268
-0.11058889 0.24881041 0.82600003 4293588475
-0.10889717 0.24850918 0.82500005 4293522682
-0.10733934 0.24850918 0.82500005 4293456889
-0.10578151 0.24850918 0.82500005 4293456889
-0.10409735 0.24820797 0.82400006 4293588218
-0.10241696 0.24790674 0.82300001 4293587960
-0.10086291 0.24790674 0.82300001 4293456630
-0.099188194 0.2476055 0.82200003 4293390835
-0.097517245 0.24730431 0.82100004 4293259249
-0.096083865 0.2476055 0.82200003 4292996077
-0.0946467 0.24790674 0.82300001 4292930284
-0.092979528 0.2476055 0.82200003 4292929771
-0.091427363 0.2476055 0.82200003 4292863977
-0.089875199 0.2476055 0.82200003 4292929770
-0.088323034 0.2476055 0.82200003 4292798184
-0.08677087 0.2476055 0.82200003 4292863975
-0.085011356 0.24700306 0.82000005 4292995561
-0.083462968 0.24700306 0.82000005 4292929769
-0.081814684 0.24670185 0.81900007 4292798184
-0.080170177 0.24640062 0.81800002 4292666599
-0.078625567 0.24640062 0.81800002 4291942876
-0.07708095 0.24640062 0.81800002 4289508535
-0.075443998 0.24609941 0.81700003 4288653226
-0.073901273 0.24609941 0.81700003 4288324260
-0.072004281 0.2448945 0.81300002 4287929504
-0.069949046 0.24308716 0.80700004 4287732124
-0.068086043 0.24188228 0.80300003 4286350470
-0.066486858 0.24158105 0.80200005 4285560954
-0.06497246 0.24158105 0.80200005 4285626234
-0.063458055 0.24158105 0.80200005 4285691770
-0.062020894 0.24188228 0.80300003 4285757563
-0.060504604 0.24188228 0.80300003 4285691770
-0.058988318 0.24188228 0.80300003 4285625977
-0.057543598 0.24218351 0.80400002 4285691770
-0.05616479 0.24278595 0.80600005 4285428598
-0.054778431 0.2433884 0.80800003 4285691770
-0.053318605 0.24368961 0.80900002 4285494904
-0.051855005 0.24399084 0.81000006 4285166196
-0.050263368 0.24368961 0.80900002 4285429622
-0.048735753 0.24368961 0.80900002 4285626745
-0.047266487 0.24399084 0.81000006 4285824123
-0.045793448 0.24429205 0.81100005 4285692022
-0.044316631 0.24459328 0.81200004 4285692022
-0.042888723 0.24519573 0.81400001 4286086781
-0.041453268 0.24579817 0.81600004 4284902508
-0.039912432 0.24579817 0.81600004 4283718234
-0.038794812 0.24850918 0.82500005 4283652187
-0.03523802 0.25664222 0.85200006 4283323222
-0.033629205 0.25664222 0.85200006 4283389015
-0.032057974 0.25694343 0.85300004 4283389014
-0.030447271 0.25694343 0.85300004 4283520855
-0.028904183 0.25754586 0.85500002 4283322963
-0.17538255 0.25157931 0.83000004 4294179067
-0.17318703 0.25066999 0.82700002 4294244861
-0.17079532 0.24945758 0.82300001 4294245117
-0.16924126 0.24945758 0.82300001 4294114045
-0.16789097 0.2497607 0.82400006 4294048252
-0.16633502 0.2497607 0.82400006 4294048508
-0.16457911 0.24945758 0.82300001 4294048765
-0.16322313 0.2497607 0.82400006 4294114558
-0.16127481 0.24915446 0.82200003 4293983229
-0.15972264 0.24915446 0.82200003 4293720057
-0.1583629 0.24945758 0.82300001 4289903806
-0.15757097 0.25066999 0.82700002 4285561212
-0.15657531 0.25157931 0.83000004 4285890176
-0.15538155 0.25218552 0.83200002 4285955454
-0.15418023 0.25279176 0.83400005 4286218368
-0.15278839 0.25309485 0.83500004 4287007883
-0.15103057 0.25279176 0.83400005 4286744710
-0.14945576 0.25279176 0.83400005 4286547331
-0.14788093 0.25279176 0.83400005 4286678918
-0.14613068 0.25248864 0.83300006 4287007884
-0.14455774 0.25248864 0.83300006 4287271056
-0.14298481 0.25248864 0.83300006 4287533973
-0.14141187 0.25248864 0.83300006 4287270802
-0.13983893 0.25248864 0.83300006 4286547336
-0.138266 0.25248864 0.83300006 4286218372
-0.13669306 0.25248864 0.83300006 4286152580
-0.13512012 0.25248864 0.83300006 4285757825
-0.13354719 0.25248864 0.83300006 4285494654
-0.13165739 0.25188243 0.83100003 4284903031
-0.1296186 0.25097311 0.82800007 4289574334
-0.12774579 0.2503669 0.82600003 4293719549
-0.12588052 0.2497607 0.82400006 4293982719
-0.12402283 0.24915446 0.82200003 4294048511
-0.12217268 0.24854825 0.82000005 4294114303
-0.1207714 0.24885137 0.82100004 4294048511
-0.11922112 0.24885137 0.82100004 4293982718
-0.11781418 0.24915446 0.82200003 4293916925
-0.11640345 0.24945758 0.82300001 4293916925
-0.11498895 0.2497607 0.82400006 4293719803
-0.11329534 0.24945758 0.82300001 4293720060
-0.11160552 0.24915446 0.82200003 4293720060
-0.11005335 0.24915446 0.82200003 4293654268
-0.10850118 0.24915446 0.82200003 4293654268
-0.10694902 0.24915446 0.82200003 4293654012
-0.10552507 0.24945758 0.82300001 4293785597
-0.10397102 0.24945758 0.82300001 4293916925
-0.10216808 0.24885137 0.82100004 4293785339
-0.1006178 0.24885137 0.82100004 4293653752
-0.098946854 0.24854825 0.82000005 4293522421
-0.097398467 0.24854825 0.82000005 4293390835
-0.095850073 0.24854825 0.82000005 4293127663
-0.094301686 0.24854825 0.82000005 4293061870
-0.092640184 0.24824513 0.81900007 4292929771
-0.091093689 0.24824513 0.81900007 4292929770
-0.089656524 0.24854825 0.82000005 4292929770
-0.08810813 0.24854825 0.82000005 4292929769
-0.086454183 0.24824513 0.81900007 4293061097
-0.084804013 0.24794205 0.81800002 4293126633
-0.083157621 0.24763893 0.81700003 4293126633
-0.081614897 0.24763893 0.81700003 4292929513
-0.080072172 0.24763893 0.81700003 4292732391
-0.078529447 0.24763893 0.81700003 4292600805
-0.076986723 0.24763893 0.81700003 4291284945
-0.075443998 0.24763893 0.81700003 4289376948
-0.073901273 0.24763893 0.81700003 4288455847
-0.072092846 0.24672961 0.81400001 4288126882
-0.070035726 0.24491097 0.80800003 4287797917
-0.068170831 0.24369854 0.80400002 4286416263
-0.066486858 0.24309231 0.80200005 4285758334
-0.06497246 0.24309231 0.80200005 4285494905
-0.063458055 0.24309231 0.80200005 4285625978
-0.062020894 0.24339543 0.80300003 4285757564
-0.060504604 0.24339543 0.80300003 4285625977
-0.058988318 0.24339543 0.80300003 4285494391
-0.057543598 0.24369854 0.80400002 4285691770
-0.05616479 0.24430475 0.80600005 4285428598
-0.05471063 0.24460785 0.80700004 4285626233
-0.053252701 0.24491097 0.80800003 4285560954
-0.051790986 0.24521407 0.80900002 4285297782
-0.050263368 0.24521407 0.80900002 4285560952
-0.048735753 0.24521407 0.80900002 4285757817
-0.047266487 0.24551718 0.81000006 4285889403
-0.04573698 0.24551718 0.81000006 4285823609
-0.044262052 0.24582028 0.81100005 4285692022
-0.042888723 0.24672961 0.81400001 4286020989
-0.041453268 0.24733584 0.81600004 4284968301
-0.039912432 0.24733584 0.81600004 4283849820
-0.038747787 0.2497607 0.82400006 4283520601
-0.035113942 0.25733837 0.84900004 4283257429
-0.033510793 0.25733837 0.84900004 4283389015
-0.032020394 0.2582477 0.85200006 4283191891
-0.030447271 0.25855079 0.85300004 4283389269
-0.029073212 0.26067254 0.86000001 4283257168
-0.18626001 0.26412308 0.86600006 4286809221
-0.18462478 0.26412308 0.86600006 4291941590
-0.17474864 0.25222838 0.82700002 4294244860
-0.17255878 0.25131342 0.82400006 4294179068
-0.17038028 0.25039846 0.82100004 4294244861
-0.16862436 0.25009343 0.82000005 4294179324
-0.16727972 0.25039846 0.82100004 4294114045
-0.16552757 0.25009343 0.82000005 4294114045
-0.1637792 0.24978843 0.81900007 4293982972
-0.16243079 0.25009343 0.82000005 4293982972
-0.16049001 0.24948347 0.81800002 4293917436
-0.1589454 0.24948347 0.81800002 4293785850
-0.15778562 0.25009343 0.82000005 4289904064
-0.15699936 0.25131342 0.82400006 4285495933
-0.15619801 0.25253338 0.82800007 4285495932
-0.15500803 0.25314337 0.83000004 4285693054
-0.15399536 0.25405833 0.83300006 4285956224
-0.1526054 0.25436333 0.83400005 4286811275
-0.15084949 0.25405833 0.83300006 4286679175
-0.14927655 0.25405833 0.83300006 4286481539
-0.14770362 0.25405833 0.83300006 4286415747
-0.14613068 0.25405833 0.83300006 4286612871
-0.14455774 0.25405833 0.83300006 4287007629
-0.14298481 0.25405833 0.83300006 4287468437
-0.14141187 0.25405833 0.83300006 4287139986
-0.13967106 0.25375333 0.83200002 4286482057
-0.13810001 0.25375333 0.83200002 4285890178
-0.13636488 0.25344837 0.83100003 4285693057
-0.13479571 0.25344837 0.83100003 4285495423
-0.13306622 0.25314337 0.83000004 4284771959
-0.13102366 0.25222838 0.82700002 4287929766
-0.12899241 0.25131342 0.82400006 4293127668
-0.12712716 0.25070342 0.82200003 4293719805
-0.12511669 0.24978843 0.81900007 4293785341
-0.12341932 0.24948347 0.81800002 4293982718
-0.12172572 0.24917845 0.81700003 4294180351
-0.12018299 0.24917845 0.81700003 4294114559
-0.11864027 0.24917845 0.81700003 4294048511
-0.11724087 0.24948347 0.81800002 4294048511
-0.11583769 0.24978843 0.81900007 4293982718
-0.11429119 0.24978843 0.81900007 4293982718
-0.1127447 0.24978843 0.81900007 4293851388
-0.11119819 0.24978843 0.81900007 4293785595
-0.10965169 0.24978843 0.81900007 4293785596
-0.10810519 0.24978843 0.81900007 4293851133
-0.10655869 0.24978843 0.81900007 4293785340
-0.10514041 0.25009343 0.82000005 4293785339
-0.10359202 0.25009343 0.82000005 4293851132
-0.10191919 0.24978843 0.81900007 4293851132
-0.10037269 0.24978843 0.81900007 4293719546
-0.098705523 0.24948347 0.81800002 4293785337
-0.097042136 0.24917845 0.81700003 4293588214
-0.095499411 0.24917845 0.81700003 4293390835
-0.093956687 0.24917845 0.81700003 4293193456
-0.092413962 0.24917845 0.81700003 4293061614
-0.090982459 0.24948347 0.81800002 4292995564
-0.08943785 0.24948347 0.81800002 4293127149
-0.08789324 0.24948347 0.81800002 4293192940
-0.086243063 0.24917845 0.81700003 4293258475
-0.084596664 0.24887349 0.81600004 4293258219
-0.083055824 0.24887349 0.81600004 4293192169
-0.081415094 0.24856848 0.81500006 4293060840
-0.07997416 0.24887349 0.81600004 4292863461
-0.07843332 0.24887349 0.81600004 4292798182
-0.076892488 0.24887349 0.81600004 4292206047
-0.075351648 0.24887349 0.81600004 4290495429
-0.073810816 0.24887349 0.81600004 4289047983
-0.072004281 0.2479585 0.81300002 4288258468
-0.070122398 0.24673854 0.80900002 4287929503
-0.068255626 0.24551857 0.80500007 4286482057
-0.066652656 0.24521357 0.80400002 4285692541
-0.06505347 0.24490859 0.80300003 4285495162
-0.06353718 0.24490859 0.80300003 4285429369
-0.062098127 0.24521357 0.80400002 4285626235
-0.060579952 0.24521357 0.80400002 4285560698
-0.059135236 0.24551857 0.80500007 4285494649
-0.057615168 0.24551857 0.80500007 4285560955
-0.056234471 0.24612854 0.80700004 4285363576
-0.054778431 0.24643354 0.80800003 4285429369
-0.053252701 0.24643354 0.80800003 4285560955
-0.051790986 0.24673854 0.80900002 4285560441
-0.050263368 0.24673854 0.80900002 4285691770
-0.048795991 0.24704352 0.81000006 4285757563
-0.047324844 0.24734853 0.81100005 4285692025
-0.045849912 0.2476535 0.81200004 4285692024
-0.04437121 0.2479585 0.81300002 4285626231
-0.042888723 0.24826348 0.81400001 4286086782
-0.041402467 0.24856848 0.81500006 4284902508
-0.040254816 0.25100842 0.82300001 4283454808
-0.038700763 0.25100842 0.82300001 4283257429
-0.034989864 0.25802323 0.84600002 4283191636
-0.033589732 0.25954819 0.85100001 4283257429
-0.031982806 0.25954819 0.85100001 4283257429
-0.030447271 0.26015818 0.85300004 4283455062
-0.029107019 0.26259813 0.86100006 4283454547
-0.18626001 0.26575494 0.86600006 4287269771
-0.18462478 0.26575494 0.86600006 4288191133
-0.17453735 0.2534799 0.82600003 4294047224
-0.17255878 0.25286615 0.82400006 4294113275
-0.17038028 0.25194553 0.82100004 4294179068
-0.16841871 0.25133175 0.81900007 4294179068
-0.16707596 0.25163862 0.82000005 4294179324
-0.1653257 0.25133175 0.81900007 4294048508
-0.16357924 0.25102487 0.81800002 4293917179
-0.1622327 0.25133175 0.81900007 4293917436
-0.1602938 0.250718 0.81700003 4293917437
-0.15875109 0.250718 0.81700003 4294114815
-0.15759321 0.25133175 0.81900007 4291812575
-0.1566183 0.25225237 0.82200003 4286220426
-0.15600936 0.25378674 0.82700002 4285167481
-0.15482126 0.25440052 0.82900006 4285364603
-0.15381049 0.25532115 0.83200002 4285561725
-0.15242243 0.25562802 0.83300006 4286417033
-0.15103057 0.25593492 0.83400005 4286416520
-0.14945576 0.25593492 0.83400005 4286153092
-0.14788093 0.25593492 0.83400005 4286153348
-0.1463061 0.25593492 0.83400005 4286350727
-0.14455774 0.25562802 0.83300006 4286745228
-0.14298481 0.25562802 0.83300006 4287008657
-0.14141187 0.25562802 0.83300006 4286811535
-0.13967106 0.25532115 0.83200002 4286285192
-0.13793403 0.25501427 0.83100003 4285890691
-0.13636488 0.25501427 0.83100003 4285232763
-0.1346335 0.2547074 0.83000004 4285035642
-0.1329059 0.25440052 0.82900006 4287535778
-0.13102366 0.25378674 0.82700002 4292930289
-0.12883587 0.25255927 0.82300001 4293720061
-0.12697251 0.25194553 0.82100004 4293720061
-0.12511669 0.25133175 0.81900007 4293851132
-0.12341932 0.25102487 0.81800002 4293982973
-0.12157672 0.25041112 0.81600004 4294180351
-0.12018299 0.250718 0.81700003 4294180351
-0.11849505 0.25041112 0.81600004 4294048765
-0.11709754 0.250718 0.81700003 4293982972
-0.11555482 0.250718 0.81700003 4293982717
-0.11415164 0.25102487 0.81800002 4294048511
-0.11260703 0.25102487 0.81800002 4293916925
-0.11106242 0.25102487 0.81800002 4293851132
-0.10965169 0.25133175 0.81900007 4293785339
-0.10810519 0.25133175 0.81900007 4293785339
-0.10655869 0.25133175 0.81900007 4293785339
-0.10501219 0.25133175 0.81900007 4293653753
-0.10346569 0.25133175 0.81900007 4293785339
-0.10179475 0.25102487 0.81800002 4293851132
-0.099759914 0.24979736 0.81400001 4293785339
-0.098222852 0.24979736 0.81400001 4293719800
-0.096685797 0.24979736 0.81400001 4293588214
-0.095148735 0.24979736 0.81400001 4293588214
-0.093956687 0.250718 0.81700003 4293325042
-0.092413962 0.250718 0.81700003 4293324529
-0.090982459 0.25102487 0.81800002 4293127150
-0.08943785 0.25102487 0.81800002 4293192942
-0.08789324 0.25102487 0.81800002 4293258735
-0.086348623 0.25102487 0.81800002 4293258221
-0.084700339 0.250718 0.81700003 4293192426
-0.083055824 0.25041112 0.81600004 4293060840
-0.081415094 0.25010425 0.81500006 4292929254
-0.07997416 0.25041112 0.81600004 4292929254
-0.0783372 0.25010425 0.81500006 4292732645
-0.076798253 0.25010425 0.81500006 4292601059
-0.074982285 0.24918361 0.81200004 4291745751
-0.073449001 0.24918361 0.81200004 4289771706
-0.071915716 0.24918361 0.81200004 4288521640
-0.070122398 0.24826297 0.80900002 4287929503
-0.068340413 0.24734238 0.80600005 4286613643
-0.066735558 0.24703549 0.80500007 4285758334
-0.065134481 0.24672861 0.80400002 4285560955
-0.063616306 0.24672861 0.80400002 4285495162
-0.062098127 0.24672861 0.80400002 4285560955
-0.0606553 0.24703549 0.80500007 4285626748
-0.059208695 0.24734238 0.80600005 4285626748
-0.057686742 0.24734238 0.80600005 4285560955
-0.056304157 0.24795611 0.80800003 4285429369
-0.054846223 0.24826297 0.80900002 4285495162
-0.053318605 0.24826297 0.80900002 4285494905
-0.051790986 0.24826297 0.80900002 4285625977
-0.050263368 0.24826297 0.80900002 4285625977
-0.048856236 0.24887675 0.81100005 4285691770
-0.047383193 0.24918361 0.81200004 4285757563
-0.04590638 0.2494905 0.81300002 4285625977
-0.044425786 0.24979736 0.81400001 4285625977
-0.042941414 0.25010425 0.81500006 4285955196
-0.041554868 0.25102487 0.81800002 4284770922
-0.040059168 0.25133175 0.81900007 4283323478
-0.038747787 0.25286615 0.82400006 4283125843
-0.037598066 0.25562802 0.83300006 4283191636
-0.036198121 0.25685552 0.83700001 4283191636
-0.034989864 0.25961742 0.84600002 4283125843
-0.033629205 0.26145869 0.85200006 4283323222
-0.032020394 0.26145869 0.85200006 4283257683
-0.030482966 0.26207244 0.85400003 4283257170
-0.02917463 0.26483431 0.86300004 4283125582
-0.18298952 0.26738679 0.86600006 4292204506
-0.17151171 0.25287503 0.81900007 4294244604
-0.16996521 0.25287503 0.81900007 4294244861
-0.16759615 0.25164002 0.81500006 4294113531
-0.1660572 0.25164002 0.81500006 4293982459
-0.16431639 0.25133124 0.81400001 4293982459
-0.16277933 0.25133124 0.81400001 4293982716
-0.16064802 0.25040498 0.81100005 4293917436
-0.15911663 0.25040498 0.81100005 4293983229
-0.15777953 0.25071374 0.81200004 4293983229
-0.15643868 0.25102249 0.81300002 4293786107
-0.15509403 0.25133124 0.81400001 4290365128
-0.1548775 0.25349259 0.82100004 4285562496
-0.15370074 0.2541101 0.82300001 4284838773
-0.15270129 0.25503638 0.82600003 4285364603
-0.1516905 0.25596267 0.82900006 4286285448
-0.15030621 0.25627142 0.83000004 4286219655
-0.14891815 0.2565802 0.83100003 4285956226
-0.14752629 0.25688893 0.83200002 4286087555
-0.14595525 0.25688893 0.83200002 4286219398
-0.14438421 0.25688893 0.83200002 4286679949
-0.14281316 0.25688893 0.83200002 4286811535
-0.14107235 0.2565802 0.83100003 4286614156
-0.13899957 0.25565389 0.82800007 4286219656
-0.13727008 0.25534514 0.82700002 4286022278
-0.13554439 0.25503638 0.82600003 4287272603
-0.13398467 0.25503638 0.82600003 4290825426
-0.13226463 0.2547276 0.82500005 4293062388
-0.13023148 0.25380132 0.82200003 4293654524
-0.1282097 0.25287503 0.81900007 4293654525
-0.12573527 0.25102249 0.81300002 4293720317
-0.12389456 0.25040498 0.81100005 4293917181
-0.12221228 0.2500962 0.81000006 4294048766
-0.12023581 0.24916992 0.80700004 4294114558
-0.11856486 0.24886118 0.80600005 4294180351
-0.11704291 0.24886118 0.80600005 4294048765
-0.11552095 0.24886118 0.80600005 4294048765
-0.11428188 0.2494787 0.80800003 4293982717
-0.1128957 0.24978743 0.80900002 4294048511
-0.11150574 0.2500962 0.81000006 4293982718
-0.1106551 0.25164002 0.81500006 4293916925
-0.10911615 0.25164002 0.81500006 4293785339
-0.1077092 0.25194877 0.81600004 4293851132
-0.10551782 0.25040498 0.81100005 4293719546
-0.10385821 0.2500962 0.81000006 4293587960
-0.1023287 0.2500962 0.81000006 4293719547
-0.10067476 0.24978743 0.80900002 4293719546
-0.099269688 0.2500962 0.81000006 4293851132
-0.097740188 0.2500962 0.81000006 4293719800
-0.096210681 0.2500962 0.81000006 4293654007
-0.094798058 0.25040498 0.81100005 4293522421
-0.093381673 0.25071374 0.81200004 4293588214
-0.091848396 0.25071374 0.81200004 4293522164
-0.090426333 0.25102249 0.81300002 4293258736
-0.088891163 0.25102249 0.81300002 4293127150
-0.087248541 0.25071374 0.81200004 4293127149
-0.085609697 0.25040498 0.81100005 4293126378
-0.084078304 0.25040498 0.81100005 4292994791
-0.082445122 0.2500962 0.81000006 4292929254
-0.080915615 0.2500962 0.81000006 4293060840
-0.079288103 0.24978743 0.80900002 4292995817
-0.077760488 0.24978743 0.80900002 4292864231
-0.076232873 0.24978743 0.80900002 4292732645
-0.074705251 0.24978743 0.80900002 4292535267
-0.073177636 0.24978743 0.80900002 4291548117
-0.071650021 0.24978743 0.80900002 4288982190
-0.069949046 0.24916992 0.80700004 4288126882
-0.068340413 0.24886118 0.80600005 4286811022
-0.066735558 0.24855241 0.80500007 4285626748
-0.065134481 0.24824363 0.80400002 4285560698
-0.063616306 0.24824363 0.80400002 4285626491
-0.062098127 0.24824363 0.80400002 4285692028
-0.0606553 0.24855241 0.80500007 4285560955
-0.059208695 0.24886118 0.80600005 4285626748
-0.057758313 0.24916992 0.80700004 4285495161
-0.056304157 0.2494787 0.80800003 4285429369
-0.054778431 0.2494787 0.80800003 4285494904
-0.053318605 0.24978743 0.80900002 4285494391
-0.051790986 0.24978743 0.80900002 4285560184
-0.050325498 0.2500962 0.81000006 4285560184
-0.048916478 0.25071374 0.81200004 4285625977
-0.04744155 0.25102249 0.81300002 4285889149
-0.04590638 0.25102249 0.81300002 4285823356
-0.044480361 0.25164002 0.81500006 4285494391
-0.043046791 0.25225753 0.81700003 4285954940
-0.041656468 0.25318381 0.82000005 4284770923
-0.040108081 0.25318381 0.82000005 4283389014
-0.038794812 0.2547276 0.82500005 4283257429
-0.037598066 0.25719771 0.83300006 4283191636
-0.036198121 0.25843275 0.83700001 4283257429
-0.034617633 0.25843275 0.83700001 4283323476
-0.033352908 0.26090282 0.84500003 4283323476
-0.032020394 0.26306418 0.85200006 4283191633
-0.03051866 0.26399043 0.85500002 4283059790
-0.02917463 0.26646051 0.86300004 4283059789
-0.1713023 0.25410771 0.81800002 4294244603
-0.16975768 0.25410771 0.81800002 4294113275
-0.16697924 0.25224385 0.81200004 4294113275
-0.16483471 0.2513119 0.80900002 4294113532
-0.16350894 0.25162256 0.81000006 4294048508
-0.16217941 0.25193322 0.81100005 4294048765
-0.16064802 0.25193322 0.81100005 4293982972
-0.15892042 0.25162256 0.81000006 4293983229
-0.15758523 0.25193322 0.81100005 4293983229
-0.15624626 0.25224385 0.81200004 4294180351
-0.15490352 0.25255448 0.81300002 4293983228
-0.15355697 0.25286511 0.81400001 4291746525
-0.15276696 0.25410771 0.81800002 4288851890
-0.15177695 0.25503966 0.82100004 4286943380
-0.15059263 0.25566095 0.82300001 4286614415
-0.14940076 0.25628221 0.82500005 4286219656
-0.14820133 0.2569035 0.82700002 4285890435
-0.14681704 0.25721416 0.82800007 4285824384
-0.14542897 0.25752482 0.82900006 4286087812
-0.14386359 0.25752482 0.82900006 4286679949
-0.14229821 0.25752482 0.82900006 4287469465
-0.14022355 0.25659287 0.82600003 4288719789
-0.13799232 0.25535029 0.82200003 4290496201
-0.13627417 0.25503966 0.82100004 4291548891
-0.13439569 0.25441834 0.81900007 4293193716
-0.13268699 0.25410771 0.81800002 4293720060
-0.13034077 0.25255448 0.81300002 4293720060
-0.12864716 0.25224385 0.81200004 4293785853
-0.12711388 0.25224385 0.81200004 4293785853
-0.12558061 0.25224385 0.81200004 4293917438
-0.12374178 0.25162256 0.81000006 4293917438
-0.1220614 0.2513119 0.80900002 4293982973
-0.12008681 0.25037998 0.80600005 4294048765
-0.11827065 0.24975868 0.80400002 4294114558
-0.11675248 0.24975868 0.80400002 4294114558
-0.11537763 0.25006932 0.80500007 4294114558
-0.11399899 0.25037998 0.80600005 4294048509
-0.1126166 0.25069061 0.80700004 4294048511
-0.11136808 0.2513119 0.80900002 4294048511
-0.10984046 0.2513119 0.80900002 4293982718
-0.10844672 0.25162256 0.81000006 4293851132
-0.10704922 0.25193322 0.81100005 4293916925
-0.10538772 0.25162256 0.81000006 4293785339
-0.10385821 0.25162256 0.81000006 4293522167
-0.10220237 0.2513119 0.80900002 4293653753
-0.10055031 0.25100127 0.80800003 4293719546
-0.099147134 0.2513119 0.80900002 4293851132
-0.097619519 0.2513119 0.80900002 4293785595
-0.096091904 0.2513119 0.80900002 4293785593
-0.094681174 0.25162256 0.81000006 4293588214
-0.093266666 0.25193322 0.81100005 4293654007
-0.091735274 0.25193322 0.81100005 4293522164
-0.090315111 0.25224385 0.81200004 4293258736
-0.088781826 0.25224385 0.81200004 4293061357
-0.087141089 0.25193322 0.81100005 4292995563
-0.085504137 0.25162256 0.81000006 4293060841
-0.08397463 0.25162256 0.81000006 4293060841
-0.08234334 0.2513119 0.80900002 4293060840
-0.080815725 0.2513119 0.80900002 4293060840
-0.079288103 0.2513119 0.80900002 4292864231
-0.077664368 0.25100127 0.80800003 4292798438
-0.076138638 0.25100127 0.80800003 4292798438
-0.074705251 0.2513119 0.80900002 4292798439
-0.073177636 0.2513119 0.80900002 4292535267
-0.071650021 0.2513119 0.80900002 4290363843
-0.069949046 0.25069061 0.80700004 4288587433
-0.068340413 0.25037998 0.80600005 4286744972
-0.066818461 0.25037998 0.80600005 4285823357
-0.065215491 0.25006932 0.80500007 4285494391
-0.063616306 0.24975868 0.80400002 4285560184
-0.062175363 0.25006932 0.80500007 4285757563
-0.0606553 0.25006932 0.80500007 4285429368
-0.059208695 0.25037998 0.80600005 4285429368
-0.057758313 0.25069061 0.80700004 4285363575
-0.056304157 0.25100127 0.80800003 4285297782
-0.054846223 0.2513119 0.80900002 4285297013
-0.053318605 0.2513119 0.80900002 4285560185
-0.051855005 0.25162256 0.81000006 4285560184
-0.050387632 0.25193322 0.81100005 4285494391
-0.048976719 0.25255448 0.81300002 4285757563
-0.04744155 0.25255448 0.81300002 4285691770
-0.046019308 0.25317577 0.81500006 4285625977
-0.04453494 0.25348642 0.81600004 4285494391
-0.042994104 0.25348642 0.81600004 4285889149
-0.041554868 0.25410771 0.81800002 4284770668
-0.040108081 0.254729 0.82000005 4283191636
-0.038841836 0.25659287 0.82600003 4283257429
-0.03755293 0.25845674 0.83200002 4283257429
-0.036154874 0.25969931 0.83600003 4283257429
-0.034865785 0.26187384 0.84300005 4283191890
-0.033550262 0.26404834 0.85000002 4283191890
-0.031945225 0.26404834 0.85000002 4283060048
-0.03051866 0.26560158 0.85500002 4283059791
-0.029140824 0.2677761 0.86200005 4282993996
-0.1713023 0.25564912 0.81800002 4292862437
-0.16975768 0.25564912 0.81800002 4294441725
-0.16615668 0.25252384 0.80800003 4294310397
-0.16422345 0.2518988 0.80600005 4294245118
-0.1627015 0.2518988 0.80600005 4294114045
-0.16137952 0.2522113 0.80700004 4294048509
-0.15985566 0.2522113 0.80700004 4294048765
-0.15833183 0.2522113 0.80700004 4294114558
-0.15680799 0.2522113 0.80700004 4294114558
-0.15547657 0.25252384 0.80800003 4294114814
-0.15395084 0.25252384 0.80800003 4294180607
-0.15242511 0.25252384 0.80800003 4294311935
-0.15108615 0.25283635 0.80900002 4293982971
-0.14955853 0.25283635 0.80900002 4293259250
-0.14803091 0.25283635 0.80900002 4292404199
-0.14704655 0.25377396 0.81200004 4291812062
-0.14784293 0.25783682 0.82500005 4291417304
-0.14646241 0.25814939 0.82600003 4291548890
-0.14349928 0.25564912 0.81800002 4291746269
-0.14351651 0.25846189 0.82700002 4292141026
-0.1405817 0.25596166 0.81900007 4292667370
-0.13801663 0.25408649 0.81300002 4293720056
-0.13765657 0.25627419 0.82000005 4294048766
-0.13428235 0.25283635 0.80900002 4294049023
-0.13242653 0.2522113 0.80700004 4293851901
-0.13220036 0.25471154 0.81500006 4293851644
-0.12937884 0.2522113 0.80700004 4293917180
-0.127855 0.2522113 0.80700004 4293917181
-0.12648772 0.25252384 0.80800003 4293982975
-0.12480732 0.2522113 0.80700004 4293916925
-0.12313072 0.2518988 0.80600005 4293982718
-0.12145788 0.25158626 0.80500007 4293916925
-0.11949085 0.25064865 0.80200005 4294048511
-0.11768224 0.2500236 0.80000001 4294114302
-0.11631683 0.25033614 0.80100006 4294180351
-0.11509097 0.25096118 0.80300003 4294114558
-0.11357469 0.25096118 0.80300003 4294114558
-0.11233749 0.25158626 0.80500007 4294114558
-0.11081743 0.25158626 0.80500007 4294114303
-0.10929736 0.25158626 0.80500007 4294048511
-0.10791118 0.2518988 0.80600005 4293916925
-0.10652123 0.2522113 0.80700004 4293982718
-0.10486728 0.2518988 0.80600005 4293916925
-0.10334533 0.2518988 0.80600005 4293851132
-0.10182337 0.2518988 0.80600005 4293851132
-0.10030142 0.2518988 0.80600005 4293785339
-0.09877947 0.2518988 0.80600005 4293851132
-0.097257517 0.2518988 0.80600005 4293785339
-0.095735565 0.2518988 0.80600005 4293851132
-0.094330505 0.2522113 0.80700004 4293719544
-0.092921667 0.25252384 0.80800003 4293588214
-0.091282822 0.2522113 0.80700004 4293587701
-0.089758985 0.2522113 0.80700004 4293390322
-0.08823514 0.2522113 0.80700004 4293192943
-0.086711302 0.2522113 0.80700004 4293061357
-0.08508189 0.2518988 0.80600005 4293061100
-0.083559938 0.2518988 0.80600005 4293060843
-0.082037985 0.2518988 0.80600005 4293060584
-0.080516033 0.2518988 0.80600005 4292929767
-0.07899408 0.2518988 0.80600005 4292798438
-0.077472128 0.2518988 0.80600005 4292798437
-0.075950176 0.2518988 0.80600005 4292798437
-0.074428223 0.2518988 0.80600005 4292798181
-0.072906271 0.2518988 0.80600005 4292666595
-0.071384318 0.2518988 0.80600005 4292271324
-0.069775686 0.25158626 0.80500007 4290231742
-0.068255626 0.25158626 0.80500007 4286941836
-0.066735558 0.25158626 0.80500007 4285560183
-0.065134481 0.25127369 0.80400002 4285560183
-0.063616306 0.25127369 0.80400002 4285428853
-0.062098127 0.25127369 0.80400002 4285428598
-0.0606553 0.25158626 0.80500007 4285297782
-0.059208695 0.2518988 0.80600005 4285363575
-0.057758313 0.2522113 0.80700004 4285363575
-0.056304157 0.25252384 0.80800003 4285297782
-0.054846223 0.25283635 0.80900002 4285560185
-0.053384509 0.25314888 0.81000006 4285625977
-0.051919024 0.25346142 0.81100005 4285691770
-0.050449759 0.25377396 0.81200004 4285823356
-0.048916478 0.25377396 0.81200004 4285889149
-0.04744155 0.25408649 0.81300002 4285757563
-0.046019308 0.25471154 0.81500006 4285691771
-0.04453494 0.25502408 0.81600004 4285625978
-0.043099482 0.25564912 0.81800002 4285954943
-0.041554868 0.25564912 0.81800002 4284639082
-0.040156994 0.25658673 0.82100004 4283323222
-0.038841836 0.25814939 0.82600003 4283257429
-0.037598066 0.26033708 0.83300006 4283191636
-0.036154874 0.26127467 0.83600003 4283389015
-0.034865785 0.26346236 0.84300005 4283126097
-0.033550262 0.26565006 0.85000002 4283191890
-0.032057974 0.26658764 0.85300004 4283257427
-0.030447271 0.26658764 0.85300004 4283125584
-0.17172113 0.25781938 0.82000005 4288585636
-0.16788994 0.25436082 0.80900002 4294638847
-0.16574541 0.25341758 0.80600005 4294376190
-0.16361219 0.25247434 0.80300003 4294244861
-0.16189404 0.25215992 0.80200005 4294113788
-0.16037963 0.25215992 0.80200005 4294048252
-0.15886524 0.25215992 0.80200005 4294114045
-0.15735084 0.25215992 0.80200005 4294114301
-0.15603076 0.25247434 0.80300003 4294179838
-0.15451446 0.25247434 0.80300003 4294180094
-0.15299818 0.25247434 0.80300003 4294311679
-0.15167055 0.25278875 0.80400002 4294311935
-0.15015237 0.25278875 0.80400002 4294246143
-0.14881904 0.25310317 0.80500007 4294311935
-0.14748196 0.25341758 0.80600005 4294311935
-0.14596002 0.25341758 0.80600005 4294180350
-0.14461726 0.253732 0.80700004 4294246399
-0.14327073 0.25404641 0.80800003 4294311679
-0.141745 0.25404641 0.80800003 4294246143
-0.14039283 0.25436082 0.80900002 4294180607
-0.13903685 0.25467524 0.81000006 4294180351
-0.13699806 0.253732 0.80700004 4294114558
-0.13547421 0.253732 0.80700004 4294114558
-0.13345243 0.25278875 0.80400002 4294049022
-0.13160604 0.25215992 0.80200005 4294048765
-0.13009164 0.25215992 0.80200005 4294048765
-0.12857725 0.25215992 0.80200005 4294114558
-0.12706284 0.25215992 0.80200005 4294048765
-0.12570499 0.25247434 0.80300003 4294114558
-0.12418871 0.25247434 0.80300003 4293982717
-0.12251965 0.25215992 0.80200005 4293982718
-0.12085436 0.25184554 0.80100006 4293916925
-0.11889488 0.25090227 0.79800004 4294048510
-0.11738804 0.25090227 0.79800004 4294114558
-0.11588119 0.25090227 0.79800004 4294114558
-0.11466099 0.25153109 0.80000001 4294114558
-0.11315037 0.25153109 0.80000001 4294114558
-0.11177929 0.25184554 0.80100006 4294114558
-0.11026678 0.25184554 0.80100006 4294114558
-0.10875427 0.25184554 0.80100006 4294114302
-0.10724176 0.25184554 0.80100006 4294048510
-0.10586125 0.25215992 0.80200005 4294048511
-0.10434685 0.25215992 0.80200005 4293916925
-0.10296067 0.25247434 0.80300003 4293916925
-0.10144439 0.25247434 0.80300003 4293916925
-0.099928096 0.25247434 0.80300003 4293851132
-0.098411806 0.25247434 0.80300003 4293916925
-0.097016186 0.25278875 0.80400002 4293916925
-0.095498011 0.25278875 0.80400002 4293851132
-0.093979828 0.25278875 0.80400002 4293785594
-0.092461653 0.25278875 0.80400002 4293653751
-0.090830363 0.25247434 0.80300003 4293719287
-0.089202851 0.25215992 0.80200005 4293587701
-0.087688453 0.25215992 0.80200005 4293324529
-0.086174056 0.25215992 0.80200005 4293192943
-0.084765211 0.25247434 0.80300003 4293126894
-0.083248928 0.25247434 0.80300003 4293126379
-0.081732638 0.25247434 0.80300003 4293126377
-0.080216348 0.25247434 0.80300003 4292995047
-0.078798071 0.25278875 0.80400002 4292863461
-0.077279896 0.25278875 0.80400002 4292863459
-0.075667486 0.25247434 0.80300003 4292797666
-0.074058853 0.25215992 0.80200005 4292600289
-0.072544456 0.25215992 0.80200005 4292731875
-0.071030058 0.25215992 0.80200005 4293126633
-0.06951566 0.25215992 0.80200005 4292008152
-0.068086043 0.25247434 0.80300003 4286678919
-0.06656976 0.25247434 0.80300003 4285428852
-0.065134481 0.25278875 0.80400002 4285494645
-0.063616306 0.25278875 0.80400002 4285494645
-0.062098127 0.25278875 0.80400002 4285428597
-0.060579952 0.25278875 0.80400002 4285560697
-0.059208695 0.25341758 0.80600005 4285560698
-0.057758313 0.253732 0.80700004 4285495161
-0.056304157 0.25404641 0.80800003 4285692541
-0.054846223 0.25436082 0.80900002 4285823357
-0.053384509 0.25467524 0.81000006 4285823357
-0.051919024 0.25498965 0.81100005 4285889149
-0.050449759 0.25530407 0.81200004 4285954942
-0.048916478 0.25530407 0.81200004 4285757563
-0.047499903 0.25593287 0.81400001 4285823356
-0.045962844 0.25593287 0.81400001 4285757563
-0.044480361 0.25624731 0.81500006 4285494391
-0.043152168 0.25750494 0.81900007 4285954942
-0.04160567 0.25750494 0.81900007 4284573289
-0.040108081 0.25781938 0.82000005 4283191636
-0.03888886 0.26002026 0.82700002 4283257429
-0.037643205 0.26222119 0.83400005 4283191636
-0.036198121 0.2631644 0.83700001 4283125843
-0.034948505 0.26567972 0.84500003 4283060304
-0.033589732 0.2675662 0.85100001 4282928718
-0.031982806 0.2675662 0.85100001 4283060304
-0.030447271 0.26819503 0.85300004 4283125841
-0.029039405 0.27008152 0.85900003 4283191377
-0.16830499 0.25651789 0.81100005 4293849588
-0.16615668 0.25556898 0.80800003 4294441727
-0.16381595 0.25430378 0.80400002 4294310141
-0.16189404 0.2536712 0.80200005 4294245117
-0.16037963 0.2536712 0.80200005 4294114045
-0.15886524 0.2536712 0.80200005 4294114045
-0.15735084 0.2536712 0.80200005 4294179838
-0.15583643 0.2536712 0.80200005 4294245374
-0.15432204 0.2536712 0.80200005 4294376703
-0.15280764 0.2536712 0.80200005 4294311423
-0.15129323 0.2536712 0.80200005 4294443007
-0.1499656 0.25398749 0.80300003 4294311423
-0.14863418 0.25430378 0.80400002 4294311679
-0.14711601 0.25430378 0.80400002 4294048509
-0.14559783 0.25430378 0.80400002 4294048509
-0.14425886 0.25462008 0.80500007 4294245887
-0.14273879 0.25462008 0.80500007 4294246143
-0.14139415 0.2549364 0.80600005 4294245887
-0.14004573 0.25525269 0.80700004 4294180095
-0.13869356 0.25556898 0.80800003 4294245887
-0.13699806 0.25525269 0.80700004 4294245631
-0.13547421 0.25525269 0.80700004 4294245631
-0.13345243 0.25430378 0.80400002 4294180094
-0.13160604 0.2536712 0.80200005 4294311679
-0.12992944 0.25335491 0.80100006 4294311679
-0.1282566 0.25303859 0.80000001 4294245887
-0.12690441 0.25335491 0.80100006 4294114558
-0.1253919 0.25335491 0.80100006 4294048765
-0.12403404 0.2536712 0.80200005 4293982972
-0.12236688 0.25335491 0.80100006 4293982972
-0.12070349 0.25303859 0.80000001 4293917179
-0.11889488 0.252406 0.79800004 4294048765
-0.11753514 0.25272229 0.79900002 4294048765
-0.1160264 0.25272229 0.79900002 4294114558
-0.11466099 0.25303859 0.80000001 4294246143
-0.11315037 0.25303859 0.80000001 4294246143
-0.11163975 0.25303859 0.80000001 4294180350
-0.11012913 0.25303859 0.80000001 4294114558
-0.1086185 0.25303859 0.80000001 4294048766
-0.10710788 0.25303859 0.80000001 4294048766
-0.10559726 0.25303859 0.80000001 4294114047
-0.10421674 0.25335491 0.80100006 4293982462
-0.10283245 0.2536712 0.80200005 4293916925
-0.10131805 0.2536712 0.80200005 4293916925
-0.099803656 0.2536712 0.80200005 4293916925
-0.098411806 0.25398749 0.80300003 4293982718
-0.097016186 0.25430378 0.80400002 4293916925
-0.095498011 0.25430378 0.80400002 4293851132
-0.093979828 0.25430378 0.80400002 4293851131
-0.092346653 0.25398749 0.80300003 4293785338
-0.090717256 0.2536712 0.80200005 4293785080
-0.089091621 0.25335491 0.80100006 4293653494
-0.087579109 0.25335491 0.80100006 4293456115
-0.086066604 0.25335491 0.80100006 4293324272
-0.084659658 0.2536712 0.80200005 4293257965
-0.083145253 0.2536712 0.80200005 4293126634
-0.081732638 0.25398749 0.80300003 4293060584
-0.080316246 0.25430378 0.80400002 4292994791
-0.078798071 0.25430378 0.80400002 4292928998
-0.077279896 0.25430378 0.80400002 4292797411
-0.075667486 0.25398749 0.80300003 4292468447
-0.074058853 0.2536712 0.80200005 4292534496
-0.072544456 0.2536712 0.80200005 4292139483
-0.071030058 0.2536712 0.80200005 4291415760
-0.06951566 0.2536712 0.80200005 4290034362
-0.068086043 0.25398749 0.80300003 4286415747
-0.066652656 0.25430378 0.80400002 4285823610
-0.065215491 0.25462008 0.80500007 4285757817
-0.063695431 0.25462008 0.80500007 4285823611
-0.062175363 0.25462008 0.80500007 4285889404
-0.0606553 0.25462008 0.80500007 4285889149
-0.059208695 0.2549364 0.80600005 4285954942
-0.057758313 0.25525269 0.80700004 4285692541
-0.056304157 0.25556898 0.80800003 4285692541
-0.054914016 0.25620157 0.81000006 4285889407
-0.053384509 0.25620157 0.81000006 4285823614
-0.051983044 0.25683418 0.81200004 4285823613
-0.050511893 0.25715047 0.81300002 4285954942
-0.049036961 0.25746676 0.81400001 4285757563
-0.047499903 0.25746676 0.81400001 4285823355
-0.045962844 0.25746676 0.81400001 4285757563
-0.04453494 0.25809938 0.81600004 4285560184
-0.043152168 0.25904825 0.81900007 4286020735
-0.04160567 0.25904825 0.81900007 4284770668
-0.040156994 0.25968087 0.82100004 4283389015
-0.038935881 0.26189494 0.82800007 4283323222
-0.037733477 0.26442534 0.83600003 4283191636
-0.036327861 0.26569051 0.84000003 4283257429
-0.034989864 0.26758832 0.84600002 4283323476
-0.033589732 0.26916981 0.85100001 4283060303
-0.031982806 0.26916981 0.85100001 4283060304
-0.030482966 0.27011871 0.85400003 4283060305
-0.18003125 0.27109161 0.85200006 4285427313
-0.17842244 0.27109161 0.85200006 4284966764
-0.16872005 0.25868246 0.81300002 4290757061
-0.16718487 0.25868246 0.81300002 4294639103
-0.16361219 0.25550064 0.80300003 4294441726
-0.16149032 0.25454611 0.80000001 4294245117
-0.15977973 0.25422791 0.79900002 4294179581
-0.1580729 0.25390974 0.79800004 4294179838
-0.15676226 0.25422791 0.79900002 4294245631
-0.15525351 0.25422791 0.79900002 4294245631
-0.15374479 0.25422791 0.79900002 4294245631
-0.15223604 0.25422791 0.79900002 4294311423
-0.15072732 0.25422791 0.79900002 4294311423
-0.14921857 0.25422791 0.79900002 4294311423
-0.14789471 0.25454611 0.80000001 4294311423
-0.14656706 0.25486431 0.80100006 4294048252
-0.14487346 0.25454611 0.80000001 4293982459
-0.14354205 0.25486431 0.80100006 4294311423
-0.14202954 0.25486431 0.80100006 4294311423
-0.14086787 0.25550064 0.80300003 4294311423
-0.13935159 0.25550064 0.80300003 4294245631
-0.1381786 0.25613701 0.80500007 4294245631
-0.13665853 0.25613701 0.80500007 4294179838
-0.13497061 0.25581881 0.80400002 4294311423
-0.13312045 0.25518245 0.80200005 4294311423
-0.13111377 0.25422791 0.79900002 4294311423
-0.12944281 0.25390974 0.79800004 4294377215
-0.12777564 0.25359154 0.79700005 4294245631
-0.12627068 0.25359154 0.79700005 4294179838
-0.12476572 0.25359154 0.79700005 4294114558
-0.12341543 0.25390974 0.79800004 4294114558
-0.12206134 0.25422791 0.79900002 4294114558
-0.12040173 0.25390974 0.79800004 4294048765
-0.11904387 0.25422791 0.79900002 4293917179
-0.11753514 0.25422791 0.79900002 4293917179
-0.11617162 0.25454611 0.80000001 4294048765
-0.11466099 0.25454611 0.80000001 4294246143
-0.11315037 0.25454611 0.80000001 4294246143
-0.1115002 0.25422791 0.79900002 4294114558
-0.10971615 0.25359154 0.79700005 4294048765
-0.10834695 0.25390974 0.79800004 4294048766
-0.10670622 0.25359154 0.79700005 4294114303
-0.10520127 0.25359154 0.79700005 4294114303
-0.10369631 0.25359154 0.79700005 4294048511
-0.10231957 0.25390974 0.79800004 4293916925
-0.10093906 0.25422791 0.79900002 4293916925
-0.099430323 0.25422791 0.79900002 4293982718
-0.098044142 0.25454611 0.80000001 4293982718
-0.096533515 0.25454611 0.80000001 4293982461
-0.095141672 0.25486431 0.80100006 4293916667
-0.093512267 0.25454611 0.80000001 4293916923
-0.091771647 0.25390974 0.79800004 4293850873
-0.090264797 0.25390974 0.79800004 4293785080
-0.088757955 0.25390974 0.79800004 4293719031
-0.087251104 0.25390974 0.79800004 4293652724
-0.085851707 0.25422791 0.79900002 4293455345
-0.084448531 0.25454611 0.80000001 4293192172
-0.083041579 0.25486431 0.80100006 4293126122
-0.081630856 0.25518245 0.80200005 4292862949
-0.080216348 0.25550064 0.80300003 4292665570
-0.078700066 0.25550064 0.80300003 4291876054
-0.077183776 0.25550064 0.80300003 4290757572
-0.075573258 0.25518245 0.80200005 4289704885
-0.073966511 0.25486431 0.80100006 4288323490
-0.072363541 0.25454611 0.80000001 4287007373
-0.07085292 0.25454611 0.80000001 4286349700
-0.06951566 0.25518245 0.80200005 4286218113
-0.068170831 0.25581881 0.80400002 4285955197
-0.066652656 0.25581881 0.80400002 4286086782
-0.065215491 0.25613701 0.80500007 4286086782
-0.063774548 0.25645521 0.80600005 4285823356
-0.0622526 0.25645521 0.80600005 4286020735
-0.060730651 0.25645521 0.80600005 4286020736
-0.059282154 0.25677338 0.80700004 4285889150
-0.057758313 0.25677338 0.80700004 4285889407
-0.056373842 0.25740972 0.80900002 4285889407
-0.054914016 0.25772792 0.81000006 4285823614
-0.05345042 0.25804612 0.81100005 4285692284
-0.052047063 0.25868246 0.81300002 4285889150
-0.05057402 0.25900063 0.81400001 4285823356
-0.049036961 0.25900063 0.81400001 4285757563
-0.047499903 0.25900063 0.81400001 4285757562
-0.046019308 0.25931883 0.81500006 4285757562
-0.04453494 0.25963703 0.81600004 4285559927
-0.042994104 0.25963703 0.81600004 4285889149
-0.041656468 0.26090974 0.82000005 4284704618
-0.040156994 0.26122794 0.82100004 4283323222
-0.038982909 0.26377341 0.82900006 4283323222
-0.037778612 0.26631883 0.83700001 4283257429
-0.036327861 0.2672734 0.84000003 4283389015
-0.035031222 0.26950067 0.84700006 4283323221
-0.033629205 0.27109161 0.85200006 4283060303
-0.032020394 0.27109161 0.85200006 4282928718
-0.17791821 0.26949638 0.84200007 4285493106
-0.17632827 0.26949638 0.84200007 4285164143
-0.16872005 0.26021448 0.81300002 4287072397
-0.16718487 0.26021448 0.81300002 4293980661
-0.16340844 0.25669372 0.80200005 4294441470
-0.16088472 0.2550934 0.79700005 4294441983
-0.15897982 0.25445327 0.79500002 4294310910
-0.15747863 0.25445327 0.79500002 4294179581
-0.15597746 0.25445327 0.79500002 4294114045
-0.15467058 0.25477335 0.79600006 4294245631
-0.1529751 0.25445327 0.79500002 4294311423
-0.15147391 0.25445327 0.79500002 4294311423
-0.15016137 0.25477335 0.79600006 4294311423
-0.14884506 0.2550934 0.79700005 4294311423
-0.14752497 0.25541347 0.79800004 4294311423
-0.14601812 0.25541347 0.79800004 4294245631
-0.14451128 0.25541347 0.79800004 4294179838
-0.14300443 0.25541347 0.79800004 4294311423
-0.14149758 0.25541347 0.79800004 4294377215
-0.14016616 0.25573352 0.79900002 4294377215
-0.13865744 0.25573352 0.79900002 4294245631
-0.13732034 0.2560536 0.80000001 4294311423
-0.13597949 0.25637367 0.80100006 4294245631
-0.1342991 0.2560536 0.80000001 4294245631
-0.13245651 0.25541347 0.79800004 4294311423
-0.13045736 0.25445327 0.79500002 4294311423
-0.12879398 0.25413319 0.79400003 4294442751
-0.12713435 0.25381315 0.79300004 4294311167
-0.12579539 0.25413319 0.79400003 4294179838
-0.1242961 0.25413319 0.79400003 4294114302
-0.12310611 0.25477335 0.79600006 4294180351
-0.12175581 0.2550934 0.79700005 4294114558
-0.12025085 0.2550934 0.79700005 4294114558
-0.11874589 0.2550934 0.79700005 4294048765
-0.11738804 0.25541347 0.79800004 4294048765
-0.1160264 0.25573352 0.79900002 4293982972
-0.11437435 0.25541347 0.79800004 4294048765
-0.1128675 0.25541347 0.79800004 4294114558
-0.11108155 0.25477335 0.79600006 4294048765
-0.10944082 0.25445327 0.79500002 4294048765
-0.10793964 0.25445327 0.79500002 4294048765
-0.10643845 0.25445327 0.79500002 4294114558
-0.10480528 0.25413319 0.79400003 4294114815
-0.10343609 0.25445327 0.79500002 4293982973
-0.10193491 0.25445327 0.79500002 4293917180
-0.10043373 0.25445327 0.79500002 4293916924
-0.098932542 0.25445327 0.79500002 4294047997
-0.097431362 0.25445327 0.79500002 4293982459
-0.096050844 0.25477335 0.79600006 4293982202
-0.094547778 0.25477335 0.79600006 4294113788
-0.093044706 0.25477335 0.79600006 4294113275
-0.091426633 0.25445327 0.79500002 4293915896
-0.089925453 0.25445327 0.79500002 4293784310
-0.088424273 0.25445327 0.79500002 4293850103
-0.086923093 0.25445327 0.79500002 4293652724
-0.085636809 0.2550934 0.79700005 4293257453
-0.084237412 0.25541347 0.79800004 4292467937
-0.082834236 0.25573352 0.79900002 4291086540
-0.081427284 0.2560536 0.80000001 4289968058
-0.080016553 0.25637367 0.80100006 4288389026
-0.078602053 0.25669372 0.80200005 4287073166
-0.077087656 0.25669372 0.80200005 4286349443
-0.075479023 0.25637367 0.80100006 4285954685
-0.073874168 0.2560536 0.80000001 4286086271
-0.072363541 0.2560536 0.80000001 4285889149
-0.07085292 0.2560536 0.80000001 4286283907
-0.069428973 0.25637367 0.80100006 4286218114
-0.068086043 0.2570138 0.80300003 4286020735
-0.066652656 0.25733384 0.80400002 4286020989
-0.065215491 0.25765392 0.80500007 4286086782
-0.063774548 0.257974 0.80600005 4286020734
-0.0622526 0.257974 0.80600005 4285954942
-0.060730651 0.257974 0.80600005 4286020735
-0.059208695 0.257974 0.80600005 4285823357
-0.057758313 0.25829405 0.80700004 4285691771
-0.056373842 0.2589342 0.80900002 4285691771
-0.054914016 0.25925428 0.81000006 4285889150
-0.053516325 0.2598944 0.81200004 4285823357
-0.052047063 0.26021448 0.81300002 4285823357
-0.050511893 0.26021448 0.81300002 4285757564
-0.048976719 0.26021448 0.81300002 4285823356
-0.047499903 0.26053452 0.81400001 4285757563
-0.046019308 0.2608546 0.81500006 4285757306
-0.044589516 0.26149473 0.81700003 4285559927
-0.043046791 0.26149473 0.81700003 4285888892
-0.041656468 0.26245493 0.82000005 4284901997
-0.040205903 0.26309505 0.82200003 4283388758
-0.038982909 0.26533556 0.82900006 4283257429
-0.037778612 0.26789606 0.83700001 4283191636
-0.036414359 0.26949638 0.84200007 4283257429
-0.03507258 0.27141681 0.84800005 4283389015
-0.17791821 0.27108303 0.84200007 4285427569
-0.17632827 0.27108303 0.84200007 4285427569
-0.17370071 0.26947328 0.83700001 4284835433
-0.1708864 0.26754159 0.83100003 4291348941
-0.16361219 0.25852695 0.80300003 4294770175
-0.16088472 0.25659522 0.79700005 4294441725
-0.15917979 0.2562733 0.79600006 4294310396
-0.15747863 0.25595134 0.79500002 4294244860
-0.15597746 0.25595134 0.79500002 4294244861
-0.15447627 0.25595134 0.79500002 4294310910
-0.1529751 0.25595134 0.79500002 4294376703
-0.15128338 0.25562939 0.79400003 4294376703
-0.14978409 0.25562939 0.79400003 4294442239
-0.14865831 0.2562733 0.79600006 4294508031
-0.1473401 0.25659522 0.79700005 4294573823
-0.14583513 0.25659522 0.79700005 4294508287
-0.14433017 0.25659522 0.79700005 4294376959
-0.14282522 0.25659522 0.79700005 4294311423
-0.14132026 0.25659522 0.79700005 4294311423
-0.13999073 0.25691721 0.79800004 4294311423
-0.1384839 0.25691721 0.79800004 4294311423
-0.13714869 0.25723913 0.79900002 4294311423
-0.13580972 0.25756109 0.80000001 4294311423
-0.13413124 0.25723913 0.79900002 4294245631
-0.13229051 0.25659522 0.79700005 4294245631
-0.13029328 0.25562939 0.79400003 4294245631
-0.12863177 0.25530744 0.79300004 4294442495
-0.12713435 0.25530744 0.79300004 4294442751
-0.12563695 0.25530744 0.79300004 4294311423
-0.1242961 0.25562939 0.79400003 4294180351
-0.12295146 0.25595134 0.79500002 4294180351
-0.12160303 0.2562733 0.79600006 4294114558
-0.12009997 0.2562733 0.79600006 4294048765
-0.11874589 0.25659522 0.79700005 4294048765
-0.11738804 0.25691721 0.79800004 4294048765
-0.11588119 0.25691721 0.79800004 4293982972
-0.11423102 0.25659522 0.79700005 4293917179
-0.11272606 0.25659522 0.79700005 4294114558
-0.110942 0.25595134 0.79500002 4294180351
-0.10930315 0.25562939 0.79400003 4294114558
-0.10780387 0.25562939 0.79400003 4294180095
-0.10630457 0.25562939 0.79400003 4294245631
-0.10493727 0.25595134 0.79500002 4294114558
-0.10343609 0.25595134 0.79500002 4294048508
-0.10193491 0.25595134 0.79500002 4293916923
-0.1003074 0.25562939 0.79400003 4293982202
-0.098808102 0.25562939 0.79400003 4294047738
-0.097308807 0.25562939 0.79400003 4294047482
-0.095809512 0.25562939 0.79400003 4294047482
-0.094429001 0.25595134 0.79500002 4294179068
-0.092927814 0.25595134 0.79500002 4294047482
-0.091541633 0.2562733 0.79600006 4293784310
-0.089925453 0.25595134 0.79500002 4293389552
-0.088424273 0.25595134 0.79500002 4292271071
-0.087032422 0.2562733 0.79600006 4291021004
-0.085636809 0.25659522 0.79700005 4289046957
-0.084237412 0.25691721 0.79800004 4287467926
-0.082834236 0.25723913 0.79900002 4286217857
-0.081427284 0.25756109 0.80000001 4286020478
-0.080016553 0.25788307 0.80100006 4285823356
-0.078602053 0.258205 0.80200005 4285757306
-0.077087656 0.258205 0.80200005 4286086528
